0.67248313 0.99702209 0.56884538 0.00690949 0.99997613 -0.00000031 1.00000000
0.41773061 1.00405911 0.43895093 0.00000036 0.99954783 0.03006897 1.00000000
0.89902149 0.53294006 0.86475575 0.67585358 -0.03682142 0.73611556 0.00000000
0.30597785 0.85154123 0.86768245 -0.00324324 0.02058833 0.99978278 2.00000000
0.10619052 0.27851126 0.14951800 -0.99995972 -0.00631701 -0.00637550 1.00000000
0.90130807 0.04451756 0.57418514 0.99985348 0.01711792 0.00000807 1.00000000
0.90164434 0.43088029 0.25034000 0.99998853 0.00337280 -0.00340141 1.00000000
0.90327759 0.87118878 0.46596496 0.99974817 0.02244086 -0.00000725 1.00000000
0.54785275 0.99963053 0.72787326 0.00000502 0.99999571 0.00292906 1.00000000
0.13798189 0.63628200 0.86749511 -0.00017585 -0.03999431 0.99919989 0.00000000
0.66491802 0.55219290 0.86872010 -0.00000026 0.01876926 0.99982384 0.00000000
0.80485015 1.00513511 0.81352539 0.00014520 0.99619036 0.08720517 1.00000000
0.30228296 1.00493379 0.46570000 -0.00435130 0.99999053 -0.00000009 1.00000000
0.87072569 1.00437653 0.11173939 0.00114065 0.99999903 0.00080506 1.00000000
0.61243958 1.00573121 0.44093097 -0.00824943 0.99996038 -0.00334502 1.00000000
0.87760156 1.00398215 0.09099870 0.00078038 0.99999968 0.00016419 1.00000000
0.33175223 0.35884825 0.86871529 -0.00334793 0.01038711 0.99994045 0.00000000
0.70372242 0.87427277 0.07770972 0.00001980 0.01716255 -0.99985271 1.00000000
0.51173197 1.00355951 0.45602333 0.00000015 0.99959515 0.02845235 1.00000000
0.65578061 0.99715180 0.71839701 0.00862155 0.99996283 -0.00000029 1.00000000
0.10563330 0.79723562 0.78617556 -0.99997941 -0.00641639 -0.00000017 1.00000000
0.30274419 1.00379973 0.56074430 0.00000035 0.99983417 0.01821091 1.00000000
0.46541397 0.75559181 0.86971924 -0.00000006 -0.00374216 0.99999300 2.00000000
0.75670473 1.00636527 0.08033314 0.00124510 0.99998993 0.00431268 1.00000000
0.90134650 0.91731405 0.55645409 0.99990406 0.01346653 0.00324407 1.00000000
0.80768972 0.99797806 0.62125966 0.00339036 0.99995416 -0.00895440 1.00000000
0.69434746 0.22632853 0.10372667 0.02386797 0.21633909 -0.97602649 1.00000000
0.85548868 0.99968818 0.32465911 -0.00000024 0.99997806 -0.00662359 1.00000000
0.63904928 0.99731029 0.29273125 0.01032765 0.99994667 0.00000012 1.00000000
0.90252821 0.67306439 0.66225574 0.99997806 0.00662356 -0.00000018 1.00000000
0.90104387 0.90104385 0.34164431 0.99917441 0.04062620 -0.00003123 1.00000000
0.90305662 0.85483694 0.55682773 0.99992038 -0.01261883 -0.00000021 1.00000000
0.18224133 0.19388391 0.86795150 -0.00002904 -0.01854437 0.99982804 0.00000000
0.10713205 0.09162757 0.31525171 -0.99996210 -0.00870664 -0.00001654 1.00000000
0.75556338 0.99680589 0.26118234 -0.00174096 0.99999848 0.00000012 1.00000000
0.14415725 1.00441462 0.35020709 -0.00405614 0.99991604 0.01230705 1.00000000
0.23138206 0.99618140 0.19955868 0.00060553 0.99999982 -0.00003425 1.00000000
0.87066518 0.99771381 0.45508180 0.03417013 0.99939871 0.00588446 1.00000000
0.75556337 0.99680591 0.52274484 -0.00171954 0.99999852 -0.00000008 1.00000000
0.19645904 0.99795882 0.63264292 0.00420021 0.99999118 0.00001380 1.00000000
0.73440164 0.10012493 0.86779783 0.00002094 -0.00971558 0.99995280 0.00000000
0.62785968 1.00412153 0.54384965 -0.00000006 0.99980230 0.01988350 1.00000000
0.77130392 0.99972660 0.19211500 -0.00000026 0.99997337 0.00729782 1.00000000
0.10505205 0.61435337 0.37161716 -0.99988115 -0.01502994 -0.00343294 1.00000000
0.12660970 1.00303114 0.20243522 0.00472233 0.99996195 0.00733442 1.00000000
0.73900496 0.99679152 0.75063886 0.00000120 1.00000000 -0.00000029 1.00000000
0.76289354 0.41325986 0.86954635 0.00002829 -0.01765998 0.99984405 0.00000000
0.90303261 0.10355999 0.24192291 0.99995393 -0.00959833 -0.00002434 1.00000000
0.38423867 0.99795881 0.41131805 0.00000015 0.99988125 -0.01541034 1.00000000
0.49999965 0.01226538 0.07748876 0.00000015 -0.00271858 -0.99999630 1.00000000
0.88873600 0.83515567 0.86749514 0.00232886 0.03943345 0.99921948 2.00000000
0.10582065 0.74770452 0.81072041 -0.99999918 -0.00125297 -0.00025355 1.00000000
0.32686781 0.71735461 0.10309250 0.00000036 0.00202603 -0.99999795 1.00000000
0.17986371 0.83515578 0.86749510 -0.00383014 0.04584780 0.99894109 2.00000000
0.90256664 0.80560846 0.40858725 0.99997337 -0.00729786 0.00000025 1.00000000
0.86317885 0.28682608 0.86892189 -0.00111708 0.01905292 0.99981785 0.00000000
0.10509047 0.31608113 0.30739164 -0.99996853 -0.00793276 -0.00002042 1.00000000
0.10568613 0.40506513 0.27334272 -0.99997605 0.00604457 -0.00337021 1.00000000
0.26374958 0.99749764 0.14569182 -0.00004667 0.99898316 -0.04508479 1.00000000
0.10603201 0.07395472 0.46298949 -0.99997592 -0.00694033 -0.00000345 1.00000000
0.35603225 1.00381891 0.24031733 -0.00632243 0.99997807 -0.00197067 1.00000000
0.43017417 0.99626308 0.31163070 -0.01871396 0.99982488 -0.00002237 1.00000000
0.66111368 0.99996678 0.35808332 0.00001829 0.99919070 0.04022364 1.00000000
0.57279857 1.00437610 0.12927468 0.00000712 0.99993932 -0.01101590 1.00000000
0.57035278 0.99787236 0.53276559 0.00339129 0.99999423 -0.00021713 1.00000000
0.10498000 0.86287357 0.71594458 -0.99990872 -0.01351105 -0.00000018 1.00000000
0.90319112 0.19731411 0.57304382 0.99999411 0.00343318 0.00000761 1.00000000
0.62546831 0.99948640 0.27473887 -0.00000028 0.99999895 -0.00144842 1.00000000
0.10555645 0.66457625 0.83669188 -0.99997187 0.00745234 -0.00085162 1.00000000
0.51822144 0.99660418 0.74495271 0.02238148 0.99974950 -0.00000028 1.00000000
0.42724870 0.99366431 0.84161711 -0.01006947 0.73844693 0.67423641 2.00000000
0.10555643 0.66457620 0.26779922 -0.99997202 0.00748083 0.00000022 1.00000000
0.80506565 0.99702207 0.37557772 -0.00700386 0.99997547 0.00000014 1.00000000
0.80163008 1.00395335 0.18494014 0.00630851 0.99997454 0.00333401 1.00000000
0.90334484 0.37946137 0.72704517 0.99990099 -0.01407191 0.00002443 1.00000000
0.37610015 1.00002403 0.84073360 0.00137413 0.98903825 0.14765314 1.00000000
0.10448040 0.89551957 0.21688208 -0.99913579 0.04156521 -0.00005337 1.00000000
0.66368170 1.00264678 0.49008168 0.00001976 0.99969469 -0.02470871 1.00000000
0.10825133 0.81090219 0.85443643 -0.94312833 0.02586424 -0.33142118 2.00000000
0.26905086 1.00484731 0.29493234 -0.00087001 0.99999962 0.00000012 1.00000000
0.71169103 0.00554940 0.86846075 0.00000849 -0.00257706 0.99999668 0.00000000
0.34226867 1.00437614 0.12927466 -0.00001496 0.99993933 -0.01101571 1.00000000
0.66874960 0.98158733 0.87021882 0.00107816 0.19379164 0.98104212 2.00000000
0.52411647 0.29877814 0.10436073 0.00000290 -0.00656472 -0.99997845 1.00000000
0.90134651 0.91731401 0.13869594 0.99990250 0.01356755 -0.00330405 1.00000000
0.10591672 0.51025690 0.57080195 -0.99973696 0.02293479 -0.00000019 1.00000000
0.27605250 0.99939993 0.58401157 -0.00002452 0.99985626 0.01695433 1.00000000
0.10713205 0.09162758 0.41378432 -0.99996209 -0.00870688 -0.00000771 1.00000000
0.45168426 0.99889076 0.82104610 -0.00000211 0.99984715 0.01748364 1.00000000
0.25989768 0.83515576 0.86749510 -0.00004651 0.04757387 0.99886772 2.00000000
0.20590992 0.93303626 0.86905149 0.03220168 -0.04901870 0.99827863 2.00000000
0.64372234 0.39322358 0.86748556 0.00001660 -0.01599663 0.99987205 0.00000000
0.52401761 1.00569756 0.18396086 -0.02651551 0.99964840 0.00000010 1.00000000
0.90130807 0.04451754 0.27744601 0.99985347 0.01711838 -0.00002412 1.00000000
0.90316231 0.25258563 0.29419871 0.99999841 -0.00178090 -0.00002157 1.00000000
0.29688816 0.99986107 0.17567661 -0.00002015 0.99975012 -0.02235393 1.00000000
0.37874080 0.99797800 0.23964700 -0.01327747 0.99991185 -0.00002832 1.00000000
0.11043442 0.18009754 0.07959272 0.19345387 0.19049358 -0.96243846 1.00000000
0.10591671 0.95772287 0.19625028 -0.99971113 -0.02403455 0.00000023 1.00000000
0.53686785 0.08618014 0.07958798 0.00000419 0.01348703 -0.99990905 1.00000000
0.67639220 0.56906835 0.86841746 -0.00000026 0.01709276 0.99985391 0.00000000
0.15857978 0.53007218 0.10363530 0.00792545 0.02740562 -0.99959298 1.00000000
0.20342356 0.03003911 0.07868964 -0.00069247 0.00516235 -0.99998644 1.00000000
0.61922516 0.40796658 0.10306374 0.00335937 0.00573753 -0.99997790 1.00000000
0.90104387 0.56958757 0.47656281 0.99943122 -0.03372286 -0.00000279 1.00000000
0.79543426 0.12072325 0.86929659 0.00003007 0.01030617 0.99994689 0.00000000
0.49999959 0.86789784 0.86789863 0.00004098 -0.01338141 0.99991046 2.00000000
0.58312450 0.99926545 0.65569265 0.00000889 0.99995105 0.00989392 1.00000000
0.15842324 0.99732468 0.08839700 -0.01239337 0.99992073 0.00222301 1.00000000
0.30521703 0.18009755 0.07959275 0.00607081 0.31180397 -0.95012706 1.00000000
0.32910967 1.00484695 0.73094951 0.00000036 0.99999962 0.00086992 1.00000000
0.10565732 0.11224995 0.65976258 -0.99994502 -0.01048573 0.00001512 1.00000000
0.15353218 0.73903826 0.86970001 -0.00001532 0.00191844 0.99999816 0.00000000
0.33641265 0.60040337 0.10215098 -0.00001816 -0.03665289 -0.99932806 1.00000000
0.20804982 0.63628199 0.86749512 -0.00003554 -0.04101033 0.99915872 0.00000000
0.17754025 0.99885231 0.71052219 -0.00334097 0.99983871 -0.01764655 1.00000000
0.22062463 0.22632850 0.10372660 -0.02465511 0.21648867 -0.97597376 1.00000000
0.49999961 1.00513516 0.81352537 0.00000015 0.99619076 0.08720080 1.00000000
0.90274918 0.39662985 0.76244598 0.99997041 0.00691485 0.00337132 1.00000000
0.10551321 0.97389220 0.51122990 -0.99765642 0.06479958 0.02196993 1.00000000
0.48798861 0.99872743 0.76564006 -0.00000163 0.99999943 0.00106546 1.00000000
0.90284526 0.98210653 0.35428017 0.98280081 0.18465641 -0.00213835 1.00000000
0.10582065 0.74770451 0.71865519 -0.99999933 -0.00115956 -0.00000018 1.00000000
0.66704341 1.00509232 0.45247309 -0.01329517 0.99990603 -0.00334188 1.00000000
0.10551320 0.81368830 0.24861442 -0.99996654 -0.00818086 0.00000023 1.00000000
0.47736373 0.87427276 0.07770969 -0.00000470 0.02207514 -0.99975631 1.00000000
0.10482628 0.59755482 0.79228971 -0.99933833 -0.03637180 0.00003273 1.00000000
0.84634473 0.39081733 0.10248733 0.00324174 -0.01461306 -0.99988797 1.00000000
0.26956482 0.73394664 0.10311171 0.00000035 0.00029093 -0.99999996 1.00000000
0.23262192 0.19759748 0.08051985 0.00898588 0.53501210 -0.84479661 1.00000000
0.44415720 0.99853525 0.08043819 -0.00172264 0.81936893 -0.57326398 1.00000000
0.73900496 0.99679153 0.78481685 0.00000120 1.00000000 -0.00000028 1.00000000
0.12025293 0.99682511 0.28123667 -0.01196847 0.99992838 -0.00000923 1.00000000
0.83989257 0.67493306 0.89658998 0.57387948 0.09806350 0.81304729 0.00000000
0.16133787 0.63628200 0.86749511 -0.00004122 -0.04100994 0.99915874 0.00000000
0.89160964 0.99823264 0.09670844 0.06783889 0.95064291 -0.30278036 1.00000000
0.45154838 0.99479799 0.84457469 -0.00000007 0.99727220 0.07381161 2.00000000
0.65788004 1.00256995 0.82713911 -0.00243909 0.99153636 0.12980639 1.00000000
0.80506565 0.99702208 0.55655598 -0.00700386 0.99997547 -0.00000032 1.00000000
0.26277138 1.00441460 0.35020710 -0.00335200 0.99992365 0.01189380 1.00000000
0.88492490 1.00485166 0.50997387 0.00446403 0.99974366 -0.02219643 1.00000000
0.11305658 0.99787234 0.53276552 0.01088288 0.99993846 -0.00215310 1.00000000
0.10505204 0.61435335 0.12652205 -0.99988237 -0.01494189 -0.00346146 1.00000000
0.90167796 0.53580784 0.46472178 0.99979067 0.02046027 0.00000002 1.00000000
0.90246097 0.78914132 0.28250709 0.99998467 -0.00553645 0.00000023 1.00000000
0.90231685 0.73956701 0.55754106 0.99999996 -0.00028873 -0.00000020 1.00000000
0.90248498 0.02676783 0.43807781 0.99957693 0.02901848 0.00197327 1.00000000
0.90104386 0.56958757 0.55859406 0.99943122 -0.03372283 0.00000708 1.00000000
0.10518655 0.84650730 0.54554377 -0.99993122 -0.01172817 -0.00000021 1.00000000
0.10619052 0.27851126 0.17368920 -0.99995964 -0.00633258 -0.00637249 1.00000000
0.85013698 1.00588493 0.43947037 0.01292760 0.99991644 -0.00000591 1.00000000
0.43107292 0.99981305 0.34135675 -0.00344147 0.99981144 0.01911143 1.00000000
0.45122246 0.16256881 0.07863683 0.00511579 0.07390918 -0.99725185 1.00000000
0.17004630 1.00527964 0.18442962 0.00965593 0.99995338 0.00000011 1.00000000
0.88804310 1.00487569 0.71434791 -0.00023473 0.99999636 0.00268867 1.00000000
0.47691536 0.71735462 0.10309253 0.00000015 0.00204727 -0.99999790 1.00000000
0.12025292 0.99682512 0.42707906 -0.01196865 0.99992837 -0.00000313 1.00000000
0.42764893 0.99795883 0.80354136 -0.00068860 0.99995386 0.00958130 1.00000000
0.10743469 0.05326032 0.52472862 -0.99986751 0.01627751 0.00000271 1.00000000
0.89983332 0.67023502 0.85949079 0.52398183 0.03172961 0.85113822 0.00000000
0.90320073 0.60610060 0.50000031 0.99988961 -0.01485796 0.00000003 1.00000000
0.56827405 0.82514518 0.07830056 -0.00004062 -0.01008164 -0.99994918 1.00000000
0.42683388 0.16256880 0.07863683 0.00503825 0.07389432 -0.99725335 1.00000000
0.12093313 1.00588495 0.65692962 -0.19070624 0.98164455 0.00225893 1.00000000
0.76781213 1.00447218 0.52692617 0.00341751 0.99997930 -0.00545192 1.00000000
0.40391253 0.99872743 0.76564004 -0.00631321 0.99997898 0.00147858 1.00000000
0.83934014 0.52080588 0.90305738 0.67865840 0.03308036 0.73370871 0.00000000
0.90030889 0.62004101 0.86138618 0.61506673 -0.01450123 0.78834170 0.00000000
0.76062459 0.91679482 0.86872007 -0.00010907 -0.01937613 0.99981226 2.00000000
0.90167796 0.93355539 0.33094457 0.99977295 -0.02130830 0.00000025 1.00000000
0.24338278 1.00485175 0.50997383 -0.00002839 0.99965151 -0.02639807 1.00000000
0.82850507 1.00355946 0.45602335 -0.00000003 0.99959572 0.02843223 1.00000000
0.90369072 0.00898925 0.09063895 0.99968611 0.02489972 0.00277068 1.00000000
0.83258421 1.00490498 0.57251384 0.01471424 0.99989174 0.00000657 1.00000000
0.22869522 0.99972656 0.19211492 0.00000014 0.99997337 0.00729782 1.00000000
0.12829432 0.99788676 0.74822654 0.00474520 0.99998519 -0.00266390 1.00000000
0.69771695 0.67253555 0.86991141 0.00346219 -0.02121468 0.99976895 0.00000000
0.59456485 1.00314637 0.38462093 0.00001125 0.99990017 -0.01413009 1.00000000
0.16392622 0.96900199 0.07852627 -0.02765149 0.10519538 -0.99406706 1.00000000
0.50700767 1.00526047 0.76875027 -0.02486625 0.99969079 -0.00000027 1.00000000
0.11264904 0.86789790 0.86789860 0.00532520 -0.00616230 0.99996683 2.00000000
0.25978223 0.33627592 0.10318858 -0.00334792 0.01269095 -0.99991386 1.00000000
0.50125474 0.99699803 0.12608722 0.02403945 0.99971101 0.00000009 1.00000000
0.82585558 0.99498967 0.86786501 -0.00643924 0.33553682 0.94200508 2.00000000
0.88834092 1.00541896 0.30554373 0.01107890 0.99993863 -0.00000821 1.00000000
0.10579182 0.33335528 0.29570006 -0.99991060 0.01294639 -0.00334309 1.00000000
0.53515935 0.99623906 0.27876385 -0.00654316 0.99997269 -0.00343527 1.00000000
0.83540110 0.58551192 0.91229651 0.62321712 -0.01531005 0.78189898 0.00000000
0.45122231 0.21430446 0.86962802 -0.00000513 0.00161814 0.99999869 0.00000000
0.90242733 0.50191284 0.54720141 0.99971761 0.02376353 -0.00000019 1.00000000
0.65578062 0.99715176 0.25861440 0.00862155 0.99996283 0.00000011 1.00000000
0.40267098 1.00588494 0.61555733 -0.01456689 0.99989390 -0.00000030 1.00000000
0.64078768 1.00355949 0.45602334 -0.00000005 0.99959572 0.02843224 1.00000000
0.77828088 0.26408573 0.10281397 0.00002940 -0.00291689 -0.99999575 1.00000000
0.18047516 0.47915760 0.10243919 -0.00003483 -0.02410022 -0.99970955 1.00000000
0.85296152 0.99947681 0.25815648 -0.00000025 0.99999996 0.00028870 1.00000000
0.35234727 1.00527968 0.61494592 -0.00947534 0.99995511 -0.00000030 1.00000000
0.30510835 1.00398224 0.09099867 -0.00000796 0.99995794 -0.00917200 1.00000000
0.10582065 0.74770451 0.62658997 -0.99999933 -0.00115956 -0.00000019 1.00000000
0.82664363 1.00002396 0.84073363 -0.00135452 0.98904217 0.14762705 1.00000000
0.10591672 0.95772291 0.74750028 -0.99971113 -0.02403454 -0.00000018 1.00000000
0.90319112 0.19731411 0.53652208 0.99999411 0.00343314 0.00000382 1.00000000
0.89456486 0.05078639 0.07733990 -0.00216473 0.01294132 -0.99991391 1.00000000
0.73930568 1.00553906 0.45211983 0.00395428 0.99997219 -0.00632304 1.00000000
0.65826036 0.23174672 0.86875855 0.00632340 -0.00214991 0.99997770 0.00000000
0.82150876 0.99715179 0.66936169 -0.00877037 0.99996154 -0.00000030 1.00000000
0.43919802 1.00290619 0.10864752 -0.00068192 0.99999888 -0.00133176 1.00000000
0.18005390 0.99952481 0.29135005 0.00000013 0.99999495 -0.00317949 1.00000000
0.26195614 0.42508700 0.10361131 0.00000034 0.03115697 -0.99951450 1.00000000
0.19645905 0.99795879 0.36735760 0.00420021 0.99999118 -0.00001397 1.00000000
0.10551320 0.97389217 0.18557093 -0.99971442 0.02336438 0.00501825 1.00000000
0.44167762 1.00485172 0.50997385 -0.00000633 0.99965149 -0.02639883 1.00000000
0.85430852 0.99749766 0.61250027 -0.01232178 0.99992408 -0.00000031 1.00000000
0.36035279 0.99886672 0.46194439 0.00000015 0.99979108 -0.02043985 1.00000000
0.81970752 1.00376601 0.36742845 0.00338810 0.99994345 0.01008035 1.00000000
0.34447639 0.99963052 0.72787323 -0.00001659 0.99999571 0.00292882 1.00000000
0.85501323 0.12444175 0.07917972 0.00003226 -0.01150442 -0.99993382 1.00000000
0.63809740 0.77211656 0.86976729 -0.00004015 -0.00449450 0.99998990 2.00000000
0.47573335 1.00437612 0.12927467 -0.00000217 0.99993932 -0.01101595 1.00000000
0.77209296 0.99684913 0.29566603 -0.00348917 0.99999391 0.00000012 1.00000000
0.10676216 0.43928678 0.14334272 -0.99999092 0.00254499 -0.00341792 1.00000000
0.10551320 0.49328054 0.25176662 -0.99999069 -0.00265394 -0.00340352 1.00000000
0.10715607 0.24080692 0.26947045 -0.99999946 -0.00103739 -0.00002597 1.00000000
0.72193544 1.00474162 0.10565923 0.00279760 0.99999607 -0.00017335 1.00000000
0.10563329 0.79723558 0.35118915 -0.99997941 -0.00641639 0.00000024 1.00000000
0.77578087 0.35351648 0.10385638 0.00337760 0.01086590 -0.99993526 1.00000000
0.47766263 0.99853525 0.08043820 -0.00068905 0.81937179 -0.57326206 1.00000000
0.19707836 0.65583792 0.87003628 -0.00003424 -0.04275144 0.99908574 0.00000000
0.10524899 0.63112312 0.17377748 -0.99994065 0.01089502 0.00000021 1.00000000
0.67248313 0.99702208 0.48852609 0.00693052 0.99997598 -0.00000009 1.00000000
0.45904738 1.00149437 0.86054375 -0.01214115 0.67665344 0.73620154 2.00000000
0.10695432 0.56101295 0.60565249 -0.99994658 -0.00975072 0.00342958 1.00000000
0.34588945 0.99860732 0.63846169 -0.00334683 0.99993663 -0.01074839 1.00000000
0.22347786 0.73394663 0.10311170 0.00000035 0.00029092 -0.99999996 1.00000000
0.76593712 1.00324244 0.59444718 -0.00000004 0.99988976 0.01484810 1.00000000
0.39165712 0.34161732 0.86937340 -0.00001159 -0.01058993 0.99994393 0.00000000
0.26915847 0.99707489 0.10498667 -0.00639209 0.99997665 0.00241486 1.00000000
0.90320073 0.60610060 0.48832911 0.99988961 -0.01485796 -0.00000127 1.00000000
0.79426590 0.87427278 0.07770974 0.00003752 0.01716120 -0.99985274 1.00000000
0.68239090 0.80871168 0.07843989 -0.00044190 -0.19338705 -0.98112244 1.00000000
0.10676218 0.43928683 0.72588348 -0.99999109 0.00250027 0.00340142 1.00000000
0.62126308 0.26947510 0.86970008 0.00001266 -0.00361532 0.99999346 0.00000000
0.46410954 0.99963053 0.72787325 -0.00000388 0.99999571 0.00292907 1.00000000
0.10551320 0.81368831 0.46572040 -0.99996671 -0.00815917 0.00000002 1.00000000
0.34135830 0.99669060 0.16731005 0.01254298 0.99991562 -0.00338053 1.00000000
0.82150876 0.99715179 0.62419864 -0.00877037 0.99996154 -0.00000031 1.00000000
0.34135829 0.99669062 0.46435488 0.01363869 0.99990699 -0.00000479 1.00000000
0.90134649 0.55271215 0.82869597 0.99983547 -0.01128587 -0.01420061 1.00000000
0.10568614 0.40506514 0.34491881 -0.99997622 0.00602059 -0.00336221 1.00000000
0.73207844 0.14501125 0.07765211 0.00002404 0.00842056 -0.99996455 1.00000000
0.80506566 0.99702206 0.22853288 -0.00700387 0.99997547 0.00000011 1.00000000
0.82508108 0.68920442 0.86981534 0.00004138 0.00477009 0.99998862 0.00000000
0.89966039 0.70355359 0.85822720 0.54627787 0.00969614 0.83754789 0.00000000
0.90303261 0.10356000 0.31565932 0.99995393 -0.00959864 -0.00001738 1.00000000
0.28820603 0.99886191 0.56690074 -0.00337799 0.99998697 -0.00382748 1.00000000
0.23725493 0.99885231 0.71052220 -0.00333439 0.99983907 -0.01762690 1.00000000
0.24368162 0.65583791 0.87003628 -0.00002898 -0.04275176 0.99908573 0.00000000
0.10713205 0.09162757 0.37683459 -0.99996209 -0.00870681 -0.00001102 1.00000000
0.51122920 0.99771382 0.12933521 0.00000169 0.99990242 -0.01396956 1.00000000
0.13434738 0.99952481 0.29135004 0.00025420 0.99999521 -0.00308528 1.00000000
0.74989498 0.99142578 0.84157636 -0.01044235 0.74627750 0.66555305 2.00000000
0.20293254 1.00502028 0.72622310 0.00612291 0.99998125 -0.00000029 1.00000000
0.17276454 0.90411342 0.07992896 -0.00386658 0.03850238 -0.99925103 1.00000000
0.64713275 0.87427277 0.07770972 0.00000873 0.01716357 -0.99985270 1.00000000
0.30680037 0.99810289 0.23770407 -0.00626650 0.99998036 -0.00002814 1.00000000
0.58198333 1.00308874 0.47306692 0.00339504 0.99999418 -0.00032774 1.00000000
0.10582545 0.73113648 0.44235764 -0.99999983 0.00058058 0.00000025 1.00000000
0.44001310 0.37605033 0.86808601 -0.00335843 0.00850577 0.99995819 0.00000000
0.26905086 1.00484735 0.69367554 -0.00087001 0.99999962 -0.00000029 1.00000000
0.75556337 0.99680593 0.73881821 -0.00174096 0.99999848 -0.00000029 1.00000000
0.30847788 0.37072817 0.10449520 -0.00002201 -0.01358006 -0.99990779 1.00000000
0.87066517 0.99771383 0.69090381 0.03406372 0.99940517 -0.00538278 1.00000000
0.37805655 0.21430447 0.86962801 -0.00001272 0.00161827 0.99999869 0.00000000
0.62228913 0.99749762 0.17701114 0.01202779 0.99992766 0.00000010 1.00000000
0.64951726 0.75050987 0.10310216 0.00004031 -0.00074215 -0.99999972 1.00000000
0.74307015 0.24916017 0.86791791 0.00002733 -0.00199481 0.99999801 0.00000000
0.46341661 0.21430446 0.86962802 -0.00000386 0.00161813 0.99999869 0.00000000
0.13478219 0.85154125 0.86768244 0.00137860 0.01940734 0.99981071 2.00000000
0.12956475 0.99795880 0.41131801 0.00022852 0.99987993 -0.01549446 1.00000000
0.48856619 1.00493339 0.69771742 0.00000015 0.99999053 0.00435122 1.00000000
0.72364089 0.98515212 0.07810363 0.00400635 0.26858124 -0.96324871 1.00000000
0.55396398 0.94725563 0.90167146 -0.01761532 0.68662182 0.72680133 2.00000000
0.90329200 0.46790255 0.65393375 0.99973737 -0.02291717 0.00001685 1.00000000
0.10627220 0.03552502 0.66099900 -0.99960094 0.02817960 -0.00196601 1.00000000
0.10578702 0.76424368 0.50000030 -0.99999584 -0.00288430 0.00000002 1.00000000
0.82260830 0.73394667 0.10311179 -0.00000004 0.00029092 -0.99999996 1.00000000
0.90298938 0.62288476 0.24368237 0.99993103 0.01174484 0.00000022 1.00000000
0.15760828 0.85154125 0.86768244 -0.00327190 0.02063650 0.99978169 2.00000000
0.10629140 0.52720436 0.14660358 -0.99977371 0.02127292 0.00000020 1.00000000
0.48864771 1.00487576 0.76406633 0.00000015 0.99999664 -0.00259294 1.00000000
0.75392625 1.00300706 0.61125538 -0.00000004 0.99991343 0.01315784 1.00000000
0.73311089 0.15588645 0.86727902 0.00002572 0.00675610 0.99997718 0.00000000
0.22359326 0.35884826 0.86871528 -0.00335988 0.01042282 0.99994004 0.00000000
0.57129040 1.00509187 0.33295698 0.00000782 0.99996179 -0.00874201 1.00000000
0.24948322 0.43037077 0.86900831 -0.00338179 0.00346892 0.99998826 0.00000000
0.79602545 1.00376602 0.36742844 0.00338512 0.99994354 0.01007233 1.00000000
0.90286448 0.83845625 0.32921225 0.99994126 -0.01083904 0.00000024 1.00000000
0.26346425 1.00002439 0.15926712 -0.00004460 0.99890420 -0.04680172 1.00000000
0.63234323 0.99959691 0.78308237 0.00001385 0.99999736 -0.00229741 1.00000000
0.10579182 0.33335529 0.34377071 -0.99991082 0.01293065 -0.00333780 1.00000000
0.32360688 0.56906840 0.86841744 0.00000014 0.01709276 0.99985391 0.00000000
0.58108095 1.00199395 0.84161711 0.00940324 0.73885418 0.67379973 2.00000000
0.30020344 1.00405913 0.43895092 0.00000034 0.99954783 0.03006897 1.00000000
0.10663727 0.92529782 0.46612800 -0.99991520 0.01261245 -0.00324239 1.00000000
0.40260819 0.23174676 0.86875854 -0.00631602 -0.00218818 0.99997766 0.00000000
0.42805655 0.99788678 0.74822658 -0.00000828 0.99999914 0.00131224 1.00000000
0.59260823 0.99795883 0.41131808 -0.00000027 0.99988125 -0.01541034 1.00000000
0.61888540 0.46450590 0.86801876 0.00339666 -0.00013851 0.99999422 0.00000000
0.90329200 0.99823263 0.62307772 0.70232377 0.71185756 0.00036955 1.00000000
0.78157572 1.00355947 0.45602335 -0.00000004 0.99959572 0.02843224 1.00000000
0.10541713 0.64786410 0.51163074 -0.99995757 0.00921185 0.00000002 1.00000000
0.39591407 0.99737758 0.81897445 0.00535661 0.99993254 0.01030673 1.00000000
0.90350818 0.14175432 0.19395415 0.99996307 0.00859425 -0.00003141 1.00000000
0.15364643 1.00545261 0.66875027 0.01143162 0.99993466 -0.00000030 1.00000000
0.64176592 0.49615798 0.10286678 0.00339260 -0.00296648 -0.99998985 1.00000000
0.53480941 1.00379970 0.56074431 0.00000015 0.99983379 0.01823147 1.00000000
0.79457723 1.00556791 0.78891330 -0.00142449 0.99997902 0.00631914 1.00000000
0.61970071 0.37072818 0.10449525 0.00001401 -0.01358033 -0.99990778 1.00000000
0.10524900 0.63112314 0.40679379 -0.99994065 0.01089503 0.00000024 1.00000000
0.29872241 0.98515209 0.07810356 -0.00360554 0.26856717 -0.96325421 1.00000000
0.13785373 0.99579712 0.37866874 -0.00409884 0.99999136 -0.00068807 1.00000000
0.16333072 0.94884566 0.90793506 -0.33789008 0.43736183 0.83339362 2.00000000
0.83885830 0.60040340 0.10215106 0.00003810 -0.03665182 -0.99932810 1.00000000
0.90342170 0.30756897 0.58426664 0.99997514 -0.00705049 0.00000896 1.00000000
0.48836912 0.67253558 0.86991140 -0.00000136 -0.02197012 0.99975863 0.00000000
0.43636423 1.00643255 0.37243913 0.03192393 0.99949030 -0.00001442 1.00000000
0.90329200 0.99823261 0.45524484 0.70232129 0.71185457 0.00280543 1.00000000
0.10629140 0.52720436 0.09948401 -0.99977192 0.02135564 0.00022329 1.00000000
0.87072570 1.00437656 0.45146765 0.00322765 0.99999456 -0.00068266 1.00000000
0.88699301 0.99795877 0.13009538 0.19039700 0.98169270 -0.00533202 1.00000000
0.10448041 0.89551959 0.46602610 -0.99913586 0.04156366 -0.00000639 1.00000000
0.10541713 0.20592238 0.63391339 -0.99999670 0.00256898 0.00001394 1.00000000
0.12195614 0.47109697 0.07780573 0.61606864 0.05833848 -0.78552915 1.00000000
0.72490416 1.00218610 0.85869591 -0.00191131 0.70000405 0.71413632 2.00000000
0.56086920 0.18009757 0.07959279 -0.00792205 0.31195141 -0.95006503 1.00000000
0.90319112 0.19731412 0.68260904 0.99999411 0.00343348 0.00001898 1.00000000
0.75670473 1.00636528 0.22421901 0.00013490 0.99999999 -0.00002924 1.00000000
0.15129039 1.00412160 0.54384962 0.00000033 0.99980230 0.01988349 1.00000000
0.80315846 0.26947507 0.86970009 0.00320181 -0.00301337 0.99999033 0.00000000
0.52433387 0.20887662 0.10284756 0.00041032 0.39873152 -0.91706761 1.00000000
0.10536428 0.83011219 0.14640654 -0.99995048 -0.00995145 0.00000021 1.00000000
0.89898058 0.80871169 0.07843992 -0.02174513 -0.02688132 -0.99940209 1.00000000
0.35749950 0.99926543 0.65569262 -0.00001542 0.99995106 0.00989377 1.00000000
0.20896702 0.24375157 0.10457685 -0.00003269 -0.00129917 -0.99999916 1.00000000
0.72446293 0.49615798 0.10286680 0.00340201 -0.00293798 -0.99998990 1.00000000
0.40505388 0.48153030 0.86756720 -0.00001126 -0.02487529 0.99969056 0.00000000
0.74010152 1.00493336 0.69771744 -0.00000005 0.99999063 0.00433007 1.00000000
0.63174557 1.00298783 0.25772120 0.00001522 0.99999831 -0.00183681 1.00000000
0.10508088 0.99003270 0.80264973 -0.98286281 0.18428487 0.00444740 1.00000000
0.90280683 0.63964014 0.59304379 0.99994956 0.01004371 -0.00000019 1.00000000
0.10710804 0.36781715 0.46406962 -0.99991139 -0.01331195 -0.00000413 1.00000000
0.75094394 1.00474117 0.27806494 0.00002686 0.99999403 -0.00345473 1.00000000
0.26905085 1.00484731 0.26075435 -0.00087000 0.99999962 0.00000012 1.00000000
0.10580142 0.71453964 0.36141334 -0.99999732 0.00231467 0.00000024 1.00000000
0.48841674 1.00350668 0.57761015 0.00000015 0.99986299 0.01655308 1.00000000
0.70453073 0.99959692 0.78308238 0.00002144 0.99999736 -0.00229767 1.00000000
0.11472787 1.00493346 0.78058147 -0.00915213 0.99991160 0.00964575 1.00000000
0.10509048 0.31608114 0.51203838 -0.99996853 -0.00793316 0.00000130 1.00000000
0.31999960 0.98158738 0.87021880 -0.00115010 0.19379385 0.98104160 2.00000000
0.37610014 0.92037881 0.07962155 -0.00325928 0.01312595 -0.99990854 1.00000000
0.36220450 0.94884566 0.90516332 -0.01589742 0.71311844 0.70086330 2.00000000
0.77309742 0.82514519 0.07830059 -0.00004061 -0.01008255 -0.99994917 1.00000000
0.10629141 0.52720439 0.50000032 -0.99977327 0.02129335 0.00000002 1.00000000
0.10623856 0.42219037 0.27372994 -0.99950600 0.03142860 0.00000021 1.00000000
0.90298936 0.62288480 0.75631824 0.99993103 0.01174484 -0.00000017 1.00000000
0.90232646 0.72298458 0.48847177 0.99999892 0.00146965 0.00000002 1.00000000
0.50700766 1.00526044 0.32472853 -0.02486626 0.99969079 0.00000011 1.00000000
0.84252020 0.69440252 0.90730329 0.56347917 0.08171526 0.82207897 0.00000000
0.28779850 0.99853524 0.08043817 -0.00654450 0.81932313 -0.57329467 1.00000000
0.44133795 1.00355952 0.45602333 0.00000036 0.99959572 0.02843224 1.00000000
0.81614092 1.00513511 0.81352539 0.00015058 0.99619033 0.08720550 1.00000000
0.70677947 0.78861251 0.86984415 -0.00000027 -0.00553636 0.99998467 2.00000000
0.43636424 1.00643258 0.76671902 0.03192325 0.99949032 0.00002988 1.00000000
0.90319112 0.19731412 0.64608730 0.99999411 0.00343335 0.00001519 1.00000000
0.80065103 0.92962120 0.89898126 0.02502340 0.66973414 0.74217923 2.00000000
0.82717352 0.60040340 0.10215105 0.00003679 -0.03665191 -0.99932809 1.00000000
0.35888541 0.56906840 0.86841744 0.00000014 0.01709276 0.99985391 0.00000000
0.90130807 0.04451756 0.54945688 0.99985348 0.01711789 0.00000539 1.00000000
0.10582545 0.73113649 0.55764296 -0.99999983 0.00058058 -0.00000020 1.00000000
0.90350816 0.14175437 0.74483731 0.99996307 0.00859390 0.00002517 1.00000000
0.90284525 0.98210656 0.64572039 0.98280081 0.18465641 0.00213836 1.00000000
0.35859402 0.99602772 0.54744592 -0.01162904 0.99993238 0.00000545 1.00000000
0.39361366 0.51835558 0.86941182 -0.00339635 -0.00533232 0.99998002 0.00000000
0.88896011 0.99939997 0.58401167 0.00442690 0.99990845 0.01278661 1.00000000
0.90284526 0.48492210 0.54728293 0.99999259 -0.00184940 0.00337778 1.00000000
0.11193568 0.56906843 0.86841743 0.00073880 0.01684741 0.99985780 0.00000000
0.10627219 0.03552501 0.54953840 -0.99960030 0.02820157 -0.00197606 1.00000000
0.29346429 1.00513518 0.66437002 -0.00002349 0.99909313 -0.04257844 1.00000000
0.88711912 0.99947681 0.25815648 -0.00023618 0.99999995 0.00020256 1.00000000
0.10627219 0.03552501 0.56192291 -0.99960037 0.02819912 -0.00197495 1.00000000
0.60550014 0.99771379 0.19955190 0.01372200 0.99990585 0.00000010 1.00000000
0.90280684 0.63964011 0.20923944 0.99994956 0.01004371 0.00000021 1.00000000
0.55699688 0.80871167 0.07843987 -0.00064303 -0.19337670 -0.98112437 1.00000000
0.90284526 0.48492208 0.25176662 0.99999263 -0.00178052 -0.00340056 1.00000000
0.18836239 1.00300714 0.61125535 0.00000034 0.99991343 0.01315783 1.00000000
0.30228217 0.67253561 0.86991139 -0.00346232 -0.02121467 0.99976895 0.00000000
0.59010829 0.92037882 0.07962158 0.00325291 0.01311486 -0.99990871 1.00000000
0.74749958 0.99749767 0.14569190 0.00004878 0.99898316 -0.04508490 1.00000000
0.87652125 0.99886195 0.56690083 0.00542243 0.99997060 -0.00542117 1.00000000
0.90130807 0.04451754 0.28981014 0.99985347 0.01711833 -0.00002278 1.00000000
0.71705126 0.29877815 0.10436076 0.00002492 -0.00656418 -0.99997846 1.00000000
0.15970058 0.24916026 0.86791787 -0.00003840 -0.00199416 0.99999801 0.00000000
0.10695432 0.56101295 0.65260901 -0.99994672 -0.00973424 0.00343568 1.00000000
0.43017418 0.99626306 0.09971494 -0.01469067 0.99988044 0.00482502 1.00000000
0.10713207 0.09162762 0.84486448 -0.97204988 0.02113310 -0.23382137 0.00000000
0.88834093 1.00541898 0.56076792 0.01107905 0.99993863 0.00000245 1.00000000
0.71749279 0.82151795 0.87008433 0.00004014 0.04927974 0.99878501 2.00000000
0.60137186 1.00002441 0.15926717 0.00001904 0.99890424 -0.04680083 1.00000000
0.90113514 0.44796231 0.41692288 0.99977446 -0.02123746 -0.00000974 1.00000000
0.81634474 0.20887664 0.10284761 -0.00752163 0.44758065 -0.89421194 1.00000000
0.90238411 0.77264535 0.12157638 0.99999285 -0.00378114 0.00000021 1.00000000
0.41478225 0.18009756 0.07959277 0.00758575 0.31192218 -0.95007737 1.00000000
0.88152136 0.38267504 0.07777222 -0.58749528 -0.02090107 -0.80895763 1.00000000
0.52313815 0.72245578 0.86970964 0.00003974 0.00215189 0.99999768 0.00000000
0.10551320 0.81368829 0.12292149 -0.99996654 -0.00818086 0.00000021 1.00000000
0.34135829 0.99669062 0.41682771 0.01245985 0.99991676 -0.00334926 1.00000000
0.34173870 0.99972657 0.19211493 0.00000015 0.99997337 0.00729782 1.00000000
0.69055665 0.99795882 0.11300741 -0.00000028 0.99987362 0.01589777 1.00000000
0.60620198 0.53528864 0.86905155 -0.00000027 0.02043990 0.99979108 0.00000000
0.90134650 0.91731404 0.46612800 0.99990417 0.01345920 -0.00323957 1.00000000
0.23904855 1.00441460 0.35020709 -0.00335465 0.99992354 0.01190174 1.00000000
0.89983332 0.67023502 0.84789433 0.48773944 0.03023150 0.87246564 0.00000000
0.36909301 1.00545259 0.36182092 -0.01117846 0.99993752 0.00000013 1.00000000
0.27966665 0.99823262 0.42816466 0.00000014 0.99985391 -0.01709272 1.00000000
0.10563329 0.79723558 0.32829513 -0.99997941 -0.00641639 0.00000024 1.00000000
0.88699300 0.99795879 0.33186169 0.19025036 0.98173261 -0.00242401 1.00000000
0.66349140 0.63628192 0.86749514 0.00001980 -0.04101111 0.99915869 0.00000000
0.15047510 0.65583792 0.87003627 -0.00003950 -0.04275106 0.99908575 0.00000000
0.90155786 0.17685029 0.54880469 0.99998735 0.00503071 0.00000546 1.00000000
0.77015577 0.99835275 0.54981881 -0.00000024 0.99958003 -0.02897858 1.00000000
0.87133117 0.01226540 0.07748882 0.00077136 0.00664663 -0.99997761 1.00000000
0.88021701 1.00280048 0.62803476 -0.00585033 0.99977030 -0.02061854 1.00000000
0.57100494 0.99797805 0.62125962 0.00336046 0.99995497 -0.00887473 1.00000000
0.65322641 0.99939995 0.58401163 0.00001667 0.99985626 0.01695464 1.00000000
0.43865437 0.15588649 0.86727900 -0.00000684 0.00675555 0.99997718 0.00000000
0.56798872 0.91679484 0.86872006 -0.00010909 -0.01937381 0.99981230 2.00000000
0.90274918 0.39662985 0.81016337 0.99994961 0.00846346 0.00539930 1.00000000
0.49999956 0.99949600 0.24160283 -0.00000006 0.99999798 0.00201044 1.00000000
0.90164433 0.43088032 0.61888619 0.99998873 0.00332851 0.00338492 1.00000000
0.10514812 0.15041063 0.38982372 -0.99997006 0.00773810 -0.00001130 1.00000000
0.41032567 0.99795880 0.11300737 0.00491744 0.99962712 -0.02685949 1.00000000
0.61243958 1.00573120 0.33460624 -0.00828507 0.99996004 -0.00335699 1.00000000
0.10551320 0.49328055 0.40543510 -0.99999060 -0.00270680 -0.00338605 1.00000000
0.17004631 1.00527969 0.73667826 0.00965592 0.99995338 -0.00000029 1.00000000
0.59528072 1.00514518 0.68869592 -0.00643740 0.99997355 0.00338438 1.00000000
0.10724254 0.57787398 0.55859406 -0.99939946 -0.03465139 0.00000709 1.00000000
0.88834092 1.00541895 0.20831547 0.01107870 0.99993863 -0.00001227 1.00000000
0.10695432 0.29584789 0.45173947 -0.99998016 -0.00629982 -0.00000548 1.00000000
0.75670474 1.00636532 0.63189564 0.00013553 0.99999999 0.00001386 1.00000000
0.68380392 0.78861251 0.86984415 -0.00000027 -0.00553636 0.99998467 2.00000000
0.75228219 0.80507963 0.86994983 0.00002622 0.02452827 0.99969914 2.00000000
0.79457722 1.00556787 0.25923939 -0.00139390 0.99997910 -0.00631333 1.00000000
0.31978218 1.00002440 0.15926713 -0.00003400 0.99890422 -0.04680126 1.00000000
0.78206485 1.00405905 0.43895095 -0.00000003 0.99954783 0.03006897 1.00000000
0.84201048 0.51312952 0.10326552 -0.00924393 0.02618313 -0.99961442 1.00000000
0.90201903 0.34211724 0.08009544 0.99999340 0.00028704 0.00362269 1.00000000
0.15364642 1.00545259 0.38750027 0.01143162 0.99993466 0.00000014 1.00000000
0.90155787 0.17685026 0.18277209 0.99998734 0.00503180 -0.00003532 1.00000000
0.18377681 1.00308880 0.47306689 -0.00342494 0.99999410 -0.00024643 1.00000000
0.33811766 0.00554946 0.86846072 -0.00000660 -0.00257714 0.99999668 0.00000000
0.23138204 0.99618146 0.81245950 0.00156470 0.99999876 0.00016104 1.00000000
0.58983654 0.99771383 0.12933522 -0.00337691 0.99991020 -0.01296887 1.00000000
0.32910964 0.86789787 0.86789862 -0.00004112 -0.01338065 0.99991047 2.00000000
0.79656206 0.99948642 0.27473889 -0.00000026 0.99999895 -0.00144841 1.00000000
0.26650100 0.08618012 0.07958794 -0.00002544 0.01348761 -0.99990904 1.00000000
0.10508087 0.99003268 0.57846495 -0.98289460 0.18416535 0.00115316 1.00000000
0.90286447 0.83845628 0.63663072 0.99994126 -0.01083904 -0.00000019 1.00000000
0.77209296 0.99684912 0.13673940 -0.00348918 0.99999391 0.00000010 1.00000000
0.58412315 0.35884821 0.86871531 0.00333852 0.01035952 0.99994077 0.00000000
0.61243959 1.00573122 0.61813885 -0.00826920 0.99996019 0.00335150 1.00000000
0.15842324 0.99732468 0.11260895 -0.01716468 0.99984344 0.00429685 1.00000000
0.30678625 0.99949599 0.24160280 0.00000015 0.99999794 0.00203186 1.00000000
0.72961916 0.76704426 0.10306374 -0.00043479 -0.18672461 -0.98241220 1.00000000
0.22576042 0.99952481 0.29135005 0.00000013 0.99999495 -0.00317949 1.00000000
0.30724824 0.85792571 0.07793544 0.00000036 -0.01291611 -0.99991658 1.00000000
0.59097788 1.00484692 0.74752234 -0.00000007 0.99999962 -0.00086920 1.00000000
0.90242734 0.50191281 0.16959271 0.99971761 0.02376353 0.00000020 1.00000000
0.11565174 0.99972656 0.19211490 0.00088761 0.99997272 0.00733346 1.00000000
0.90316230 0.25258567 0.75422588 0.99999841 -0.00178066 0.00002670 1.00000000
0.59184742 0.76704425 0.10306372 -0.00065991 -0.18671435 -0.98241403 1.00000000
0.56215979 0.02333278 0.86725020 0.00067731 0.00533377 0.99998555 0.00000000
0.80506565 0.99702208 0.46606685 -0.00698223 0.99997562 -0.00000009 1.00000000
0.65614093 0.33627595 0.10318864 0.00333895 0.01266335 -0.99991424 1.00000000
0.23471415 0.99795882 0.80354133 -0.00070149 0.99995398 0.00956826 1.00000000
0.73900497 0.99679150 0.52278560 0.00002253 1.00000000 -0.00000008 1.00000000
0.10669492 0.12986035 0.53680742 -0.99992479 -0.01226473 0.00000335 1.00000000
0.75691528 0.99961612 0.49583946 0.00002847 0.99966589 0.02584797 1.00000000
0.10695431 0.56101292 0.31217423 -0.99994682 -0.00972184 -0.00344020 1.00000000
0.88699300 0.99795879 0.30944321 0.19026122 0.98172966 -0.00274717 1.00000000
0.65578062 0.99715177 0.39654918 0.00862155 0.99996283 0.00000013 1.00000000
0.90104386 0.56958758 0.60546906 0.99943123 -0.03372273 0.00001272 1.00000000
0.10629141 0.94152478 0.64651523 -0.99975321 -0.02221548 -0.00000020 1.00000000
0.45486372 0.90411344 0.07992900 -0.00000878 0.04022250 -0.99919075 1.00000000
0.10582545 0.73113650 0.64987122 -0.99999983 0.00058057 -0.00000019 1.00000000
0.80851858 0.99952485 0.29135014 -0.00000025 0.99999495 -0.00317949 1.00000000
0.90286447 0.83845628 0.64801659 0.99994126 -0.01083904 -0.00000019 1.00000000
0.10612327 0.16795858 0.12113486 -0.99997149 0.00414579 -0.00631082 1.00000000
0.28086920 0.18009755 0.07959275 0.00573407 0.31178067 -0.95013680 1.00000000
0.86379026 0.26947506 0.86970009 -0.00198765 -0.00146012 0.99999696 0.00000000
0.65093027 0.68920445 0.86981533 -0.00000027 0.00490459 0.99998797 0.00000000
0.33489094 1.00514476 0.40471965 -0.00001785 0.99987538 -0.01578681 1.00000000
0.62228912 0.99749763 0.26929375 0.01202779 0.99992766 0.00000011 1.00000000
0.13785374 0.99579711 0.25733721 -0.00409076 0.99999139 -0.00069608 1.00000000
0.77711571 1.00467918 0.24762934 -0.00147298 0.99999891 -0.00002875 1.00000000
0.72046156 0.66740561 0.10286199 -0.00000005 0.00719520 -0.99997411 1.00000000
0.81218710 0.70073379 0.10304454 -0.00000004 0.00375509 -0.99999295 1.00000000
0.47699688 0.75050986 0.10310213 -0.00004000 -0.00074269 -0.99999972 1.00000000
0.61243958 1.00573121 0.42911711 -0.00825337 0.99996034 -0.00334635 1.00000000
0.10574858 0.69791398 0.28018373 -0.99999183 0.00404273 0.00000022 1.00000000
0.48817899 1.00314639 0.38462092 -0.00000123 0.99990016 -0.01413020 1.00000000
0.17004630 1.00527966 0.47745951 0.00963418 0.99995359 -0.00000009 1.00000000
0.90265311 0.65636668 0.58127069 0.99996525 0.00833662 -0.00000019 1.00000000
0.47578754 0.28682614 0.86892186 -0.00000257 0.01651896 0.99986355 0.00000000
0.90280683 0.63964014 0.56978292 0.99994956 0.01004371 -0.00000019 1.00000000
0.37874080 0.99797799 0.13313885 -0.01327670 0.99991186 -0.00003987 1.00000000
0.31532569 0.71735461 0.10309250 0.00000036 0.00202603 -0.99999795 1.00000000
0.90243214 0.68973328 0.61569324 0.99998797 0.00490451 -0.00000019 1.00000000
0.43636423 1.00643253 0.19849211 0.03192301 0.99949033 -0.00003397 1.00000000
0.43017417 0.99626309 0.41758858 -0.01871432 0.99982487 -0.00000984 1.00000000
0.90198059 0.12118482 0.29142698 0.99993531 -0.01137426 -0.00001880 1.00000000
0.88021703 1.00509183 0.33295700 0.00798727 0.99995388 -0.00533391 1.00000000
0.49999953 0.48153029 0.86756720 -0.00000007 -0.02487540 0.99969056 0.00000000
0.90134649 0.55271214 0.71130466 0.99995512 -0.00882788 0.00344029 1.00000000
0.72241775 0.99680590 0.31739158 0.00173730 0.99999849 0.00000012 1.00000000
0.61222785 0.95282311 0.07892024 -0.00000008 -0.02342754 -0.99972554 1.00000000
0.15364642 1.00545260 0.50000027 0.01140980 0.99993491 -0.00000009 1.00000000
0.34465305 0.41325992 0.86954633 -0.00001682 -0.01766048 0.99984404 0.00000000
0.69119517 0.41325987 0.86954635 0.00002056 -0.01766034 0.99984404 0.00000000
0.10568614 0.40506514 0.41649489 -0.99997639 0.00599672 -0.00335422 1.00000000
0.47627681 1.00441457 0.35020711 -0.00000237 0.99993772 0.01116033 1.00000000
0.59342344 0.99961611 0.49583944 0.00001031 0.99966587 0.02584865 1.00000000
0.13785374 0.99579710 0.17240515 -0.00408498 0.99999141 -0.00070169 1.00000000
0.90238410 0.77264540 0.70641334 0.99999285 -0.00378113 -0.00000018 1.00000000
0.70580169 0.99684917 0.74010217 0.00346737 0.99999399 -0.00000029 1.00000000
0.38736372 0.92037881 0.07962155 -0.00325706 0.01312225 -0.99990859 1.00000000
0.90252822 0.67306435 0.10595139 0.99997865 0.00652952 0.00024984 1.00000000
0.14872927 1.00336259 0.14686105 -0.00003199 0.99991814 -0.01279492 1.00000000
0.27940853 0.68920450 0.86981531 0.00000014 0.00490459 0.99998797 0.00000000
0.90164433 0.43088031 0.52377750 0.99998979 0.00451828 0.00000319 1.00000000
0.53515936 0.99623904 0.10410353 -0.00450343 0.99998518 0.00305925 1.00000000
0.90319112 0.19731413 0.78000034 0.99999410 0.00343395 0.00002909 1.00000000
0.85739089 0.99853528 0.08043825 -0.01912969 0.77461183 -0.63214759 1.00000000
0.15188137 0.99771380 0.12933516 0.01365713 0.99967606 -0.02147700 1.00000000
0.10713206 0.09162761 0.83254791 -0.99998133 -0.00603019 0.00099070 1.00000000
0.73530517 0.06179609 0.86745677 0.00002087 -0.00617540 0.99998093 0.00000000
0.36483655 0.92037881 0.07962155 -0.00326151 0.01312966 -0.99990848 1.00000000
0.53680654 0.15588648 0.86727901 0.00000401 0.00675552 0.99997718 0.00000000
0.10630100 0.22337903 0.11108730 -0.99999312 -0.00282498 0.00240591 1.00000000
0.26222779 0.46450596 0.86801874 -0.00341187 -0.00009798 0.99999417 0.00000000
0.28599144 0.92037880 0.07962154 -0.00327708 0.01315577 -0.99990809 1.00000000
0.31894224 1.00502027 0.61453831 -0.00605121 0.99998169 -0.00000030 1.00000000
0.10663727 0.54412307 0.39416472 -0.99980780 0.01960523 0.00000023 1.00000000
0.85107287 0.28682608 0.86892189 -0.00166823 0.01908056 0.99981656 0.00000000
0.10541714 0.20592238 0.73130469 -0.99999670 0.00256936 0.00002406 1.00000000
0.16015580 0.60273286 0.86789863 0.00000012 0.01372208 0.99990585 0.00000000
0.62923528 0.94083307 0.90587663 0.01920681 0.71795714 0.69582228 2.00000000
0.72241774 0.99680593 0.72826114 0.00173730 0.99999849 -0.00000029 1.00000000
0.18400765 0.24916025 0.86791787 -0.00003567 -0.00199434 0.99999801 0.00000000
0.75265588 0.31900660 0.10249212 0.00002699 -0.00819816 -0.99996639 1.00000000
0.30228296 1.00493382 0.80870272 -0.00423772 0.99999099 -0.00025391 1.00000000
0.64624960 0.98158733 0.87021882 0.00093440 0.19378765 0.98104305 2.00000000
0.81206754 1.00648539 0.41559129 -0.00506159 0.99998719 -0.00000892 1.00000000
0.68532569 0.68408410 0.10296766 -0.00000005 0.00547814 -0.99998499 1.00000000
0.41950319 1.00614432 0.33793505 0.01092796 0.99993442 -0.00342427 1.00000000
0.53605250 0.35884822 0.86871530 0.00000373 0.00966551 0.99995329 0.00000000
0.43636423 1.00643255 0.40722853 0.03192402 0.99949030 -0.00001051 1.00000000
0.32965996 0.20887661 0.10284753 0.00996327 0.44774438 -0.89410609 1.00000000
0.10518656 0.84650731 0.67078833 -0.99993122 -0.01172817 -0.00000019 1.00000000
0.10663728 0.54412309 0.64111445 -0.99980780 0.01960523 -0.00000018 1.00000000
0.10551321 0.97389221 0.62352609 -0.99970786 0.02349239 -0.00568338 1.00000000
0.90342170 0.30756897 0.60834273 0.99997515 -0.00705044 0.00001151 1.00000000
0.46264212 0.00554944 0.86846073 -0.00000157 -0.00257724 0.99999668 0.00000000
0.90265312 0.65636665 0.23296906 0.99996525 0.00833662 0.00000022 1.00000000
0.55594388 0.99823262 0.09670839 -0.00834633 0.96826029 -0.24980461 1.00000000
0.49999964 0.14501123 0.07765208 0.00000015 0.00842000 -0.99996455 1.00000000
0.90155787 0.17685026 0.21937535 0.99998734 0.00503156 -0.00003124 1.00000000
0.24292084 0.12444171 0.07917962 -0.00002310 -0.01150498 -0.99993382 1.00000000
0.36385826 0.99954403 0.22507803 0.00000016 0.99999285 0.00378109 1.00000000
0.90203823 0.94976797 0.80375028 0.99973260 -0.02312424 -0.00000017 1.00000000
0.27166391 0.35884826 0.86871529 -0.00335457 0.01040692 0.99994022 0.00000000
0.10695432 0.56101294 0.48826118 -0.99996352 -0.00854189 -0.00000158 1.00000000
0.59528071 1.00514514 0.29951113 -0.00644141 0.99997352 -0.00338605 1.00000000
0.90265311 0.65636666 0.43033998 0.99996525 0.00833662 0.00000024 1.00000000
0.65658253 1.00303106 0.20243526 0.00001786 0.99999429 0.00337860 1.00000000
0.73220065 0.68920444 0.86981534 -0.00000026 0.00490459 0.99998797 0.00000000
0.25380382 0.12072333 0.86929655 -0.00002517 0.01030590 0.99994689 0.00000000
0.10629141 0.94152477 0.56762256 -0.99975321 -0.02221548 -0.00000021 1.00000000
0.45018163 0.99835273 0.77015652 -0.02038482 0.99979221 0.00002961 1.00000000
0.90280682 0.63964016 0.74423944 0.99994956 0.01004371 -0.00000017 1.00000000
0.39591407 0.99737755 0.50000026 0.00671591 0.99997745 -0.00000009 1.00000000
0.10630102 0.22337908 0.68230333 -0.99997934 -0.00117357 0.00632063 1.00000000
0.10591672 0.51025690 0.61800304 -0.99973696 0.02293479 -0.00000018 1.00000000
0.33898058 0.75050985 0.10310211 -0.00004001 -0.00074210 -0.99999972 1.00000000
0.83792306 0.99731028 0.22951114 -0.01054301 0.99994442 0.00000012 1.00000000
0.18414357 0.61952184 0.86768246 -0.00347841 -0.01582249 0.99986877 0.00000000
0.13692898 1.00308880 0.47306689 0.00304582 0.99999382 0.00175850 1.00000000
0.90167796 0.53580784 0.40592423 0.99979109 0.02043981 0.00000023 1.00000000
0.80506565 0.99702210 0.68097853 -0.00700387 0.99997547 -0.00000030 1.00000000
0.10509048 0.31608115 0.57222860 -0.99996853 -0.00793311 0.00000769 1.00000000
0.37273734 0.72245580 0.86970963 -0.00003987 0.00215233 0.99999768 0.00000000
0.53515934 0.99623909 0.72123668 -0.00654316 0.99997269 0.00343510 1.00000000
0.79457722 1.00556789 0.48796222 -0.00171442 0.99999853 -0.00000165 1.00000000
0.65578062 0.99715176 0.21263614 0.00862154 0.99996283 0.00000011 1.00000000
0.25747232 0.26947515 0.86970005 -0.00002552 -0.00361485 0.99999347 0.00000000
0.90203824 0.51887474 0.37042151 0.99975566 0.02210459 0.00000023 1.00000000
0.61834201 0.47915763 0.10243925 0.00001311 -0.02410124 -0.99970952 1.00000000
0.88834093 1.00541899 0.75522444 0.01107879 0.99993863 0.00001057 1.00000000
0.90104387 0.90104385 0.35295545 0.99917442 0.04062613 -0.00002900 1.00000000
0.10724255 0.57787399 0.67578156 -0.99939947 -0.03465103 0.00002120 1.00000000
0.38247244 0.54698607 0.10397640 0.00000036 0.01932667 -0.99981322 1.00000000
0.14945613 0.60040336 0.10215095 0.27998965 -0.08664954 -0.95608454 1.00000000
0.27671142 0.04407526 0.86860483 -0.00002084 -0.00441739 0.99999024 0.00000000
0.12239775 1.00398226 0.09099865 0.00080562 0.99999939 0.00075360 1.00000000
