0.04580414 0.59276264 0.72652787 -0.37575426 -0.04301973 0.92572028 6.00000000
0.02148656 0.31410028 0.71023977 -0.92213784 0.32183728 0.21466850 6.00000000
0.68917075 0.42972235 1.02422937 0.22894185 0.96324040 0.14054736 2.00000000
0.04166400 0.60591311 0.72650473 -0.00004991 0.00792869 0.99996857 6.00000000
0.94701348 0.47240472 0.72551755 0.20090143 0.15922632 0.96658450 6.00000000
0.08127673 0.30165063 0.73798078 0.00074175 0.78302678 0.62198755 6.00000000
0.62660280 0.34485513 1.07595095 -0.00004393 -0.00801642 0.99996787 2.00000000
0.58391268 0.82426587 0.64625873 -0.00348532 0.99985062 -0.01692888 6.00000000
0.45804312 0.82426589 0.64625872 0.00349258 0.99985090 -0.01691065 6.00000000
0.22584968 0.69973421 0.72544654 -0.01846749 -0.01844836 0.99965925 6.00000000
0.15609329 0.21487632 0.76398809 0.00004217 0.00286595 0.99999589 6.00000000
0.46975722 0.82876304 0.50176519 0.00025508 0.99999900 0.00138970 6.00000000
0.49449324 0.82725779 0.33856340 0.00190147 0.99998215 0.00566479 6.00000000
0.64841198 0.33278430 1.07491139 0.00347384 -0.00025426 0.99999393 2.00000000
0.35325805 0.82832059 0.73753130 0.02301714 0.97638480 0.21480907 6.00000000
0.76497688 0.23879534 0.76227743 0.02055635 0.13327136 0.99086638 6.00000000
0.97891503 0.72093468 0.32330118 0.99998179 0.00337981 0.00500020 6.00000000
0.80635154 0.82439555 0.58536206 -0.00342631 0.99994430 -0.00998307 6.00000000
0.41249966 0.82365106 0.28227167 0.00004229 0.99999346 -0.00361771 6.00000000
0.28260827 0.41917828 0.74198710 0.06617018 0.13227892 0.98900141 4.00000000
0.03190715 0.60224023 0.54753936 -0.99999817 -0.00190834 0.00012529 6.00000000
0.47790717 0.32130737 0.69622692 -0.00000428 0.99995906 0.00904864 2.00000000
0.97979133 0.44624100 0.61741609 0.98389020 0.17848824 -0.01010076 6.00000000
0.69455121 0.48315889 0.72772490 -0.00339192 0.00100667 0.99999374 6.00000000
0.32419305 0.38099980 0.95936931 0.99995016 -0.00419087 0.00906202 2.00000000
0.03202976 0.69127461 0.35037440 -0.99999520 -0.00023901 -0.00308850 6.00000000
0.56165281 0.81868818 0.69017054 -0.00080195 0.99999965 -0.00023449 6.00000000
0.47564008 0.37640359 1.07502656 -0.01885179 0.03561745 0.99918767 2.00000000
0.52074691 0.81889532 0.74554190 0.00592442 0.90796023 0.41901446 6.00000000
0.95340836 0.30337696 0.73949853 -0.08493195 0.41291367 0.90680145 6.00000000
0.55269917 0.42370792 1.04674375 -0.01855870 0.56540173 0.82460685 2.00000000
0.04461914 0.43829710 0.74496539 -0.14236650 0.62676072 0.76609580 6.00000000
0.35831472 0.82681870 0.49375440 0.00488531 0.99998767 0.00089190 6.00000000
0.14474720 0.46909001 0.72587139 -0.03287451 0.28491014 0.95799033 6.00000000
0.45592727 0.48766564 0.72754535 -0.03153974 0.08344532 0.99601311 6.00000000
0.67785281 0.42081145 1.07181016 0.05220703 0.55627123 0.82935923 2.00000000
0.25065651 0.35732971 0.74733212 0.00540582 -0.00547823 0.99997038 4.00000000
0.83295481 0.82293042 0.44319613 0.00006987 0.99937566 0.03533108 6.00000000
0.30132955 0.82738905 0.52415460 -0.00084666 0.99999866 0.00139895 6.00000000
0.42671837 0.75835413 0.72874330 0.00151457 -0.00003517 0.99999885 6.00000000
0.72730872 0.81857756 0.59904935 0.00072810 0.99998400 -0.00561007 6.00000000
0.86407448 0.81555315 0.75367831 -0.04091524 0.78387306 0.61957160 6.00000000
0.97766958 0.63485558 0.68125868 0.99999600 -0.00058719 0.00276556 6.00000000
0.67935416 0.34485512 1.07595095 0.06002312 -0.02168271 0.99796146 2.00000000
0.30830388 0.39778378 0.97426591 -0.99953703 0.02975511 -0.00635367 2.00000000
0.73883118 0.82407373 0.34814022 -0.00000006 0.99995048 -0.00995136 6.00000000
1.00689225 0.24783630 0.70753002 0.99679348 0.07965638 0.00759142 6.00000000
0.52076050 0.82349728 0.73541567 0.00009333 0.95879407 0.28410197 6.00000000
0.43539361 0.51542068 0.72860877 0.00344336 -0.00231709 0.99999139 6.00000000
0.54203759 0.37770294 1.07624878 -0.00000032 -0.01083912 0.99994126 2.00000000
0.81060071 0.42193553 0.74199944 -0.01473802 0.06862074 0.99753395 1.00000000
0.92504041 0.81833861 0.73308199 0.00975627 0.96535168 0.26076993 6.00000000
0.36158210 0.69931980 0.72544503 0.02280941 0.02282453 0.99947925 6.00000000
0.96609385 0.81906011 0.27182602 0.18036730 0.97625444 -0.11997878 6.00000000
0.12051588 0.44596382 0.73729867 -0.00607074 0.54922521 0.83565233 6.00000000
0.09813275 0.29028531 0.75657433 0.01476163 0.42052325 0.90716167 6.00000000
0.18410290 0.82293051 0.61444851 -0.00006883 0.99986113 0.01666457 6.00000000
0.19088959 0.82448692 0.50793094 0.00000036 0.99961652 -0.02769134 6.00000000
0.98671271 0.38147172 0.71585893 0.99882713 -0.02420769 0.04193266 6.00000000
0.19558269 0.49115568 0.72757790 -0.01938079 0.04923659 0.99859909 6.00000000
0.95851868 0.82371342 0.29878207 0.06189220 0.99807303 -0.00442555 6.00000000
0.89189225 0.81902783 0.46107888 -0.00021698 0.99999789 -0.00204440 6.00000000
0.27417018 0.68992017 0.72753503 -0.02071900 -0.02070484 0.99957092 6.00000000
0.30244597 0.82775219 0.37605976 0.00281261 0.99999604 0.00008379 6.00000000
0.46900836 0.31574873 0.72419118 -0.00211303 0.99999744 -0.00080511 2.00000000
0.27259469 0.46698485 0.72732617 0.00625280 0.20353515 0.97904767 6.00000000
0.60455126 0.77125207 0.72689388 0.00000904 0.03440353 0.99940802 6.00000000
0.63936106 0.82327632 0.45942306 -0.00338935 0.99998635 0.00397734 6.00000000
0.88969544 0.61063830 0.72711286 0.00913775 -0.00912093 0.99991665 6.00000000
0.43947518 0.63480763 0.72633101 0.01024149 -0.01024156 0.99989511 6.00000000
0.00719833 0.29074660 0.70577359 -0.91903403 0.39361552 0.02105412 6.00000000
0.89987733 0.71401097 0.72889224 0.00008436 0.00566288 0.99998396 6.00000000
0.12712624 0.67408470 0.72652787 0.00939941 -0.01220080 0.99988139 6.00000000
0.99218716 0.81591699 0.29000568 0.14379053 0.98953089 -0.01236511 6.00000000
0.68331055 0.47849755 0.72602630 0.00232871 0.06015168 0.99818653 6.00000000
0.72241143 0.82896669 0.50388023 0.00589671 0.99996605 -0.00575614 6.00000000
0.40266270 0.82445807 0.38090153 0.00000039 0.99990872 -0.01351096 6.00000000
0.74623647 0.44909608 0.72633099 -0.01374190 0.29332692 0.95591343 6.00000000
0.32012620 0.82767276 0.48177512 0.00177782 0.99999776 -0.00114492 6.00000000
0.71168439 0.66665598 0.72652879 0.00004621 0.01075133 0.99994220 6.00000000
0.19941256 0.74637098 0.72652788 0.00707162 -0.00407588 0.99996669 6.00000000
0.61814503 0.82293045 0.44319611 0.00002489 0.99937574 0.03532883 6.00000000
0.17126325 0.82361747 0.26573246 0.00000015 0.99999589 -0.00286685 6.00000000
0.79347701 0.51441992 0.72711285 0.00913470 -0.00912438 0.99991665 6.00000000
0.65084204 0.82495762 0.41354759 -0.00338991 0.99995213 0.00917891 6.00000000
0.79635831 0.66665596 0.72652880 0.00006472 0.01075241 0.99994219 6.00000000
0.37300427 0.81940202 0.70895962 -0.00053456 0.99621414 0.08693162 6.00000000
0.40425232 0.62183737 0.72715325 0.00345883 -0.01466854 0.99988643 6.00000000
0.48217821 0.48012036 0.72751245 -0.00668328 0.12040440 0.99270243 6.00000000
0.46743172 0.82407377 0.34814020 0.00000015 0.99995070 -0.00992960 6.00000000
0.56472785 0.49930419 0.72815243 -0.00000032 -0.02738580 0.99962494 6.00000000
0.89858658 0.74267953 0.72784503 -0.00735168 0.00124011 0.99997221 6.00000000
0.79366125 0.40862444 0.74701662 -0.00400892 0.18771632 0.98221511 1.00000000
0.09661455 0.72689840 0.72603010 0.00822615 0.00832253 0.99993153 6.00000000
0.61571755 0.35827498 1.07622163 -0.01047866 -0.01048780 0.99989010 2.00000000
0.45633346 0.61814149 0.72602631 0.00857127 -0.00857134 0.99992653 6.00000000
0.62329492 0.38486545 1.07588290 0.01620012 0.15969139 0.98703405 2.00000000
0.47453750 0.82721087 0.36601535 0.00414547 0.99998550 0.00343873 6.00000000
0.25907565 0.34610418 0.74876994 0.05327211 -0.02833419 0.99817797 4.00000000
0.21183094 0.69737710 0.72704774 -0.00104530 0.00104131 0.99999891 6.00000000
0.97749704 0.59637822 0.64548453 0.99999904 0.00120343 0.00069159 6.00000000
0.70871559 0.33943656 0.72781616 0.11475306 0.30649523 0.94492984 6.00000000
0.97793349 0.47728862 0.48673894 0.99713311 0.07566423 0.00069490 6.00000000
0.34463707 0.81924224 0.46685366 -0.00139612 0.99999795 0.00146624 6.00000000
0.76834198 0.54474730 0.72690348 0.00005690 0.02440091 0.99970225 6.00000000
0.50015609 0.81880391 0.48091858 0.00033664 0.99999052 0.00434014 6.00000000
0.60096649 0.82727323 0.66152753 -0.00190062 0.99999496 0.00254457 6.00000000
0.68257282 0.43184971 0.82056373 -0.99996123 -0.00880487 0.00005564 2.00000000
0.48012223 0.51781990 0.72751245 0.00619801 0.00620046 0.99996157 6.00000000
0.05774421 0.82293052 0.61444850 -0.00407428 0.99987571 0.01523062 6.00000000
0.68006329 0.43738740 0.73655460 -0.00295932 0.35304455 0.93560183 6.00000000
0.87044801 0.82382390 0.56936089 -0.00338718 0.99995897 -0.00840125 6.00000000
0.15546149 0.19822665 0.76406494 0.00011772 0.00296181 0.99999561 6.00000000
0.03162985 0.65951842 0.57793956 -0.99999479 0.00126099 0.00297053 6.00000000
0.48906205 0.32094228 0.78498035 -0.00000209 0.99999913 -0.00132005 2.00000000
0.07347729 0.52598723 0.72625491 -0.01343710 -0.00428896 0.99990052 6.00000000
0.42510155 0.82365104 0.47562118 0.00000040 0.99971113 -0.02403445 6.00000000
0.68294535 0.37455315 0.81057461 -0.99999917 0.00109237 -0.00068972 2.00000000
0.85543486 0.81961666 0.71345378 0.00205291 0.99406453 0.10877270 6.00000000
0.31155299 0.43154249 0.95728796 -0.99897210 0.04523335 0.00294639 2.00000000
0.61508107 0.42081146 1.07181016 -0.03141200 0.59549045 0.80274804 2.00000000
0.31567892 0.44596379 0.73729868 -0.00991284 0.55097326 0.83446402 6.00000000
0.67326045 0.46698479 0.72732619 -0.00654246 0.20357506 0.97903748 6.00000000
0.70937455 0.42524048 1.06185687 0.24704088 0.73022159 0.63698292 2.00000000
0.97858396 0.45966575 0.51047717 0.99132127 0.13144662 0.00198113 6.00000000
0.38133111 0.49930422 0.72815241 0.00000017 -0.02738580 0.99962494 6.00000000
0.42973417 0.32509194 0.82333105 -0.00602270 0.99997747 0.00296442 2.00000000
0.63812143 0.36187659 1.07612348 0.00067576 0.00454221 0.99998946 2.00000000
0.44551596 0.82380477 0.31526358 0.00000039 0.99997942 -0.00641630 6.00000000
0.31790372 0.80250059 0.75389829 0.04559767 -0.01998933 0.99875987 6.00000000
0.22758118 0.82380480 0.31526357 0.00000036 0.99997942 -0.00641631 6.00000000
0.93311785 0.82439553 0.58536206 -0.00340556 0.99994384 -0.01003558 6.00000000
0.40936064 0.31453336 0.92037073 0.00533414 0.99997455 -0.00473687 2.00000000
0.72312197 0.82769892 0.51939018 0.00290377 0.99999534 -0.00094534 6.00000000
0.10260155 0.82293053 0.44319608 -0.00398033 0.99941744 0.03389604 6.00000000
0.83097174 0.81306178 0.74447177 0.02874980 0.90704955 0.42004114 6.00000000
0.06080016 0.44555875 0.73987968 -0.09017693 0.53267615 0.84150118 6.00000000
0.40192901 0.82380477 0.31526358 0.00000039 0.99997942 -0.00641630 6.00000000
0.17828079 0.21487632 0.76398809 0.00005293 0.00264615 0.99999650 6.00000000
0.01774364 0.22359429 0.76317375 -0.48802309 -0.03114770 0.87227478 6.00000000
0.92586127 0.81864068 0.67106665 -0.00150772 0.99991518 -0.01293652 6.00000000
0.09224828 0.82300257 0.67514344 -0.00409810 0.99995698 0.00832145 6.00000000
0.02137178 0.39111295 0.70077054 -0.99854756 -0.05155121 -0.01566001 6.00000000
0.48920471 0.32090865 0.90102368 -0.00000203 0.99978397 0.02078489 2.00000000
0.31876261 0.51409512 0.72633100 0.00992200 -0.00992297 0.99990154 6.00000000
0.34896698 0.49930423 0.72815241 0.00000017 -0.02738580 0.99962494 6.00000000
0.39412812 0.32917600 1.07457134 0.01058590 -0.01051472 0.99988868 2.00000000
0.86839586 0.29179457 0.74117569 -0.03355739 0.49944259 0.86569683 6.00000000
0.54173877 0.82376629 0.69095249 -0.00349045 0.99974308 -0.02239605 6.00000000
0.03173952 0.63484257 0.35238962 -0.99999997 0.00022068 -0.00006809 6.00000000
0.48571100 0.31398589 0.76337798 0.00445894 0.99998672 0.00258548 2.00000000
0.03033514 0.62393020 0.59193560 -0.99999332 0.00358203 0.00072947 6.00000000
0.35902302 0.82774367 0.37851873 0.00018033 0.99999631 0.00271090 6.00000000
0.63857383 0.65699907 0.72757791 0.01081941 0.01082012 0.99988293 6.00000000
0.94957165 0.82300244 0.67514349 0.00410717 0.99995678 0.00834094 6.00000000
0.28201050 0.82349732 0.73541565 -0.00097852 0.95878865 0.28411859 6.00000000
0.03044592 0.73187422 0.42320994 -0.99999837 0.00115372 0.00139047 6.00000000
0.00496027 0.28677827 0.59248487 -0.94452629 0.32837392 0.00637666 6.00000000
0.84804314 0.82392480 0.33171633 -0.00000005 0.99996654 -0.00818078 6.00000000
0.54130994 0.39373791 1.07457134 0.02063553 0.23448470 0.97190077 2.00000000
0.52163009 0.82445806 0.38090154 0.00000016 0.99990902 -0.01348905 6.00000000
0.24796841 0.82361746 0.26573247 0.00000015 0.99999589 -0.00286685 6.00000000
0.06492487 0.82727810 0.58555714 0.00841932 0.99994865 -0.00564004 6.00000000
0.84201042 0.26465231 0.76393049 0.00086421 0.10205644 0.99477824 6.00000000
0.05706476 0.23149719 0.76394004 0.00000012 0.00202597 0.99999795 6.00000000
0.51079438 0.32090864 0.90102368 0.00000233 0.99978397 0.02078489 2.00000000
0.67773740 0.77125206 0.72689388 0.00001541 0.03440373 0.99940802 6.00000000
0.80694258 0.82382391 0.56936088 -0.00339850 0.99995915 -0.00837509 6.00000000
0.41670733 0.71228021 0.72757792 -0.01081708 0.01082250 0.99988293 6.00000000
0.48949011 0.72697625 0.72697553 -0.00000239 0.00377833 0.99999286 6.00000000
0.02995119 0.77295072 0.63873997 -0.97122559 -0.23723340 0.02100412 6.00000000
0.50455914 0.32345635 0.72388018 -0.00621001 0.99997131 0.00433683 2.00000000
0.37758776 0.81864382 0.29918493 -0.00005832 0.99999995 0.00031357 6.00000000
0.52093714 0.82497683 0.66212059 0.00000456 0.99993233 0.01163345 6.00000000
0.02233653 0.44025702 0.73195693 -0.56886766 0.40828954 0.71392523 6.00000000
0.46897446 0.32388745 0.88407329 0.00067979 0.99998796 -0.00485966 2.00000000
0.01748290 0.82246527 0.67147866 -0.30414156 0.95262438 0.00216846 6.00000000
0.26714635 0.66665604 0.72652877 -0.00005096 0.01075157 0.99994220 6.00000000
0.98659644 0.30443836 0.72535035 0.77873095 0.48083732 0.40295605 6.00000000
0.85593712 0.75835406 0.72874332 -0.00146596 -0.00008793 0.99999892 6.00000000
0.67586912 0.32100951 0.74071894 -0.44384635 0.89201474 0.08549926 2.00000000
0.22074693 0.82293051 0.44319609 -0.00005832 0.99937569 0.03533032 6.00000000
0.24092357 0.82469348 0.39723896 0.00000037 0.99988295 -0.01530001 6.00000000
0.90710557 0.56078208 0.72744150 -0.00338202 -0.00778647 0.99996397 6.00000000
0.75124964 0.82497680 0.66212061 0.00005312 0.99993231 0.01163498 6.00000000
0.71793444 0.82380473 0.31526360 -0.00000007 0.99997942 -0.00641631 6.00000000
0.62936030 0.66621260 0.72757792 0.01081902 0.01082052 0.99988293 6.00000000
0.78631749 0.29676034 0.74839528 -0.00388852 0.77977262 0.62605075 6.00000000
0.62978216 0.31972211 0.88563739 0.00002557 0.99974765 0.02246421 2.00000000
0.70036113 0.34805484 0.89354504 0.99999356 -0.00280324 0.00223962 2.00000000
0.02138628 0.36893410 0.64177402 -0.99995481 -0.00710473 0.00631675 6.00000000
0.57344862 0.55477954 0.72577707 -0.00690642 -0.00690650 0.99995230 6.00000000
0.17083520 0.63773289 0.72783056 0.00344519 -0.01639569 0.99985965 6.00000000
0.53230258 0.51542066 0.72860878 0.00000532 -0.00377074 0.99999289 6.00000000
0.45682031 0.82469345 0.39723897 0.00000040 0.99988295 -0.01530000 6.00000000
0.79788008 0.82494798 0.52404264 -0.00340568 0.99998960 -0.00303377 6.00000000
0.98722651 0.35645859 0.59151016 0.99998710 -0.00061043 -0.00504217 6.00000000
0.69680597 0.42284826 1.01851564 0.96471566 0.24582048 0.09431856 2.00000000
0.66314504 0.82392483 0.33171632 -0.00000008 0.99996654 -0.00818077 6.00000000
0.72141266 0.69825481 0.72807559 -0.00348539 -0.02347886 0.99971826 6.00000000
0.52110949 0.81809255 0.58922719 0.00042418 0.99999934 0.00106550 6.00000000
0.98635607 0.35460819 0.57393353 0.99999588 0.00241298 -0.00155549 6.00000000
0.57290045 0.82455890 0.70673269 -0.00350988 0.99970436 -0.02405986 6.00000000
0.97765210 0.68097302 0.28333590 0.99999425 -0.00047015 -0.00335770 6.00000000
0.23216671 0.56078218 0.72744146 0.00340639 -0.00772976 0.99996432 6.00000000
0.76527128 0.24808911 0.76392088 0.00284606 0.03003388 0.99954483 6.00000000
0.56513553 0.82407375 0.34814021 -0.00000009 0.99995048 -0.00995136 6.00000000
0.95745889 0.82494796 0.52404265 0.06181320 0.99808663 -0.00148602 6.00000000
0.04341676 0.82543807 0.54012543 -0.06795467 0.99762054 0.01163744 6.00000000
0.52152128 0.32041386 0.92913982 -0.00354119 0.99950513 -0.03125625 2.00000000
0.99785092 0.79589151 0.27676922 0.89887715 0.40606470 -0.16471589 6.00000000
0.56177424 0.32477929 0.92185461 0.00318869 0.99999440 0.00101620 2.00000000
0.90167085 0.82407370 0.34814023 -0.00000004 0.99995048 -0.00995137 6.00000000
0.84300235 0.82538029 0.72248409 -0.00847591 0.99562908 0.09301023 6.00000000
0.03054952 0.55203477 0.69787454 -0.97616196 -0.01301260 0.21665295 6.00000000
0.79981758 0.81832941 0.34411143 0.00410070 0.99998953 -0.00202873 6.00000000
0.03157718 0.60545243 0.64548453 -0.99999713 0.00060250 0.00231891 6.00000000
0.67645959 0.32353843 0.90246433 -0.52045618 0.85387208 -0.00527520 2.00000000
0.03518983 0.68246991 0.72728774 0.00341001 -0.00601020 0.99997612 6.00000000
0.06298194 0.60591311 0.72650473 0.00176375 0.01645584 0.99986304 6.00000000
0.03109687 0.71791695 0.68815362 -0.99779632 -0.00767099 0.06590651 6.00000000
0.69914947 0.36642311 0.91698337 0.99999810 -0.00125951 0.00148503 2.00000000
0.99407173 0.81287397 0.43271152 0.35289446 0.93548130 -0.01844550 6.00000000
0.73643981 0.53150827 0.72909397 0.00004775 0.02620056 0.99965671 6.00000000
0.47893986 0.82293046 0.61444853 -0.00000445 0.99986118 0.01666207 6.00000000
0.83754972 0.81902491 0.29891798 0.00090645 0.99999954 0.00032377 6.00000000
0.97873665 0.70953479 0.67317061 0.99999620 -0.00275494 0.00006585 6.00000000
0.70729669 0.81791490 0.49117340 0.00157066 0.99999876 -0.00012355 6.00000000
0.55728317 0.81768115 0.52640163 -0.00297154 0.99999515 -0.00093735 6.00000000
0.61896705 0.82445804 0.38090155 -0.00000008 0.99990872 -0.01351096 6.00000000
0.55393980 0.49930420 0.72815243 -0.00000032 -0.02738580 0.99962494 6.00000000
0.11970073 0.82439565 0.58536201 0.00341451 0.99994403 -0.01001377 6.00000000
0.39304727 0.58837974 0.72633100 0.01024148 -0.01024156 0.99989511 6.00000000
0.08043440 0.74267966 0.72784498 0.00734681 0.00122164 0.99997227 6.00000000
0.39361373 0.62183737 0.72715325 0.00345694 -0.01467306 0.99988637 6.00000000
0.67152139 0.82327631 0.45942307 -0.00338376 0.99998642 0.00396432 6.00000000
0.23677038 0.65484536 0.72558559 0.00027024 0.00027873 0.99999992 6.00000000
0.81186034 0.82825199 0.32341089 -0.00451960 0.99998850 -0.00160112 6.00000000
0.39074920 0.31354195 0.70316975 0.00676320 0.99997503 -0.00204916 2.00000000
0.21951045 0.49930425 0.72815240 0.00000015 -0.02738581 0.99962494 6.00000000
0.39245889 0.82525068 0.42982736 -0.00002130 0.99931204 0.03708690 6.00000000
0.42138175 0.42137981 1.06537025 -0.01237504 0.38452365 0.92303219 2.00000000
0.32625768 0.32625571 0.80907408 0.84219354 0.53795252 0.03629217 2.00000000
0.32182113 0.81915749 0.38826699 -0.00396693 0.99998973 0.00219198 6.00000000
0.46817399 0.82880907 0.56779416 0.00354244 0.99999194 -0.00189062 6.00000000
0.71426590 0.56078211 0.72744149 -0.00341594 -0.00770773 0.99996446 6.00000000
0.48985802 0.82731986 0.52330916 -0.00321380 0.99998744 0.00384630 6.00000000
0.74703757 0.39327097 0.74752589 -0.00244137 0.04320747 0.99906314 1.00000000
0.83101671 0.75660057 0.72544654 0.00956206 -0.01379461 0.99985913 6.00000000
0.67868757 0.42339709 1.05638266 0.26554848 0.80268941 0.53401659 2.00000000
0.34963280 0.82293049 0.44319610 -0.00003134 0.99937573 0.03532903 6.00000000
0.60018521 0.81923281 0.72551757 0.00269148 0.97887922 0.20442168 6.00000000
0.30081263 0.45437583 0.72669646 0.00156660 0.24649635 0.96914245 6.00000000
0.85070512 0.82857666 0.73405126 0.01860855 0.97231122 0.23294768 6.00000000
0.08194730 0.62890578 0.72652787 0.00890967 -0.00756011 0.99993173 6.00000000
0.30251322 0.82538037 0.72248405 0.00530308 0.99163193 0.12898832 6.00000000
0.73494530 0.82405450 0.49179050 -0.00000007 0.99966558 -0.02585977 6.00000000
0.98586450 0.43866204 0.28739653 0.98173686 0.18807204 0.02866433 6.00000000
0.94135710 0.19735596 0.76265310 -0.00653306 -0.00673818 0.99995596 6.00000000
0.34715999 0.82371351 0.29878203 0.00000038 0.99998915 -0.00465794 6.00000000
0.24624955 0.26465240 0.76393045 -0.00064128 0.10204308 0.99477977 6.00000000
0.03013841 0.72968380 0.28977638 -0.99999962 0.00064541 -0.00057991 6.00000000
0.78999286 0.82293043 0.44319613 0.00006087 0.99937568 0.03533046 6.00000000
0.69988666 0.30827636 0.85937394 0.99999896 -0.00002029 0.00144019 2.00000000
0.23749966 0.82365108 0.28227166 0.00004228 0.99999345 -0.00361855 6.00000000
0.00868030 0.29707549 0.49795197 -0.93244488 0.35983233 -0.03266867 6.00000000
0.80614170 0.82731267 0.46071385 0.00389513 0.99999207 -0.00083077 6.00000000
0.96781835 0.64982208 0.72545703 0.00723956 -0.00931085 0.99993045 6.00000000
0.48956485 0.82376630 0.69095248 -0.00000167 0.99977081 -0.02140864 6.00000000
0.97755882 0.50220070 0.64487876 0.99998815 0.00310658 0.00374896 6.00000000
0.46749286 0.82425151 0.36453528 0.00000015 0.99993148 -0.01170625 6.00000000
0.04415971 0.82765632 0.32084413 -0.15525517 0.98780159 -0.01199397 6.00000000
0.70038422 0.30635286 0.77961001 0.99999508 -0.00155067 0.00272688 2.00000000
0.67004185 0.81799452 0.48775366 0.00098754 0.99999588 0.00269382 6.00000000
0.54788843 0.67611654 0.72577708 0.00658988 -0.00658907 0.99995658 6.00000000
0.04309566 0.82824962 0.27182602 -0.18112376 0.97884718 -0.09514397 6.00000000
0.41540430 0.51017969 0.72544653 -0.01846014 -0.01845638 0.99965923 6.00000000
0.31058378 0.37172716 1.07117604 -0.16294597 0.02072457 0.98641731 2.00000000
0.35182026 0.66665603 0.72652877 -0.00003245 0.01075075 0.99994221 6.00000000
0.76868165 0.53150827 0.72909397 0.00005427 0.02620093 0.99965670 6.00000000
0.88114767 0.39518844 0.74940407 -0.00814792 0.12637789 0.99194871 1.00000000
0.44726468 0.32319272 0.65331772 -0.01018393 0.99994655 -0.00178383 2.00000000
0.49061819 0.82737633 0.49018374 0.00069359 0.99999635 0.00261073 6.00000000
0.75092354 0.77125205 0.72689389 0.00002178 0.03440404 0.99940801 6.00000000
0.32539094 0.42055058 0.85096240 0.99999450 -0.00298735 0.00144016 2.00000000
0.55468705 0.32094227 0.78498035 0.00001135 0.99999913 -0.00131999 2.00000000
0.59202471 0.82795265 0.32038099 -0.00254863 0.99999646 -0.00076602 6.00000000
0.26003150 0.81865363 0.35583894 0.00256381 0.99999059 0.00349892 6.00000000
0.85480218 0.69215627 0.72652787 -0.00940429 -0.01220386 0.99988131 6.00000000
0.93451048 0.65359945 0.72853676 0.00407514 0.01109575 0.99993014 6.00000000
0.52024799 0.81907568 0.50791569 0.00308395 0.99998968 0.00333706 6.00000000
0.19016488 0.81759538 0.60267520 -0.00129659 0.99999568 -0.00263719 6.00000000
0.84327400 0.23149707 0.76394009 -0.00004371 0.00188560 0.99999822 6.00000000
0.39239085 0.32041388 0.92913981 0.00352730 0.99950404 -0.03129280 2.00000000
0.97734452 0.59118180 0.48168789 0.99999323 -0.00318948 0.00183617 6.00000000
0.77547510 0.30165053 0.73798082 -0.00080831 0.78302305 0.62199217 6.00000000
0.83084878 0.59276522 0.72860400 0.00006781 0.01945260 0.99981078 6.00000000
0.24656243 0.81954765 0.48343299 -0.00377447 0.99998628 -0.00363293 6.00000000
0.10502681 0.82538040 0.72248404 0.00840434 0.99563450 0.09295868 6.00000000
0.63707297 0.32493728 0.93610293 -0.11454038 0.99219866 -0.04921707 2.00000000
0.80434740 0.41917820 0.74198713 -0.00458004 0.20294337 0.97917977 1.00000000
0.54336914 0.45363048 0.72963197 0.00028664 0.38947999 0.92103488 6.00000000
0.31672944 0.81756290 0.30023175 -0.00143549 0.99999845 0.00102137 6.00000000
0.40997758 0.82794863 0.69313543 -0.00616076 0.99998062 0.00089603 6.00000000
0.05624954 0.21487634 0.76398808 0.00004120 0.00305083 0.99999535 6.00000000
0.41630390 0.42820921 1.06441242 0.01003937 0.75629850 0.65414966 2.00000000
1.00808552 0.25024974 0.39946128 0.96665826 0.25357510 -0.03565771 6.00000000
0.97864427 0.55725110 0.56167961 0.99998917 0.00316446 0.00341394 6.00000000
0.78522383 0.82439555 0.58536205 -0.00342977 0.99994437 -0.00997425 6.00000000
0.97727391 0.74159239 0.51402511 0.99998730 -0.00501531 0.00049381 6.00000000
1.00659215 0.24950572 0.73998982 0.93739032 0.05584115 0.34377486 6.00000000
0.91739094 0.82376623 0.69095251 -0.00342161 0.99973966 -0.02255884 6.00000000
0.02204770 0.38644034 0.61816337 -0.99999975 -0.00069958 0.00010103 6.00000000
0.42614764 0.34485516 1.07595094 0.00004381 -0.00801615 0.99996787 2.00000000
0.17091736 0.81866757 0.59378723 -0.00179610 0.99999654 -0.00192276 6.00000000
0.05960705 0.72977132 0.72633555 0.00925825 0.00975961 0.99990951 6.00000000
0.89032566 0.45363043 0.72963199 0.00257937 0.38953698 0.92100722 6.00000000
0.56476868 0.82469343 0.39723898 -0.00000009 0.99988295 -0.01530000 6.00000000
0.31729578 0.53150833 0.72909394 -0.00003700 0.02620005 0.99965672 6.00000000
0.68628352 0.32772030 0.76162951 -0.49021163 0.85339404 0.17723194 2.00000000
0.13555289 0.45989570 0.72587139 -0.04184515 0.34064057 0.93926194 6.00000000
0.77762423 0.29077551 0.74501066 0.00825367 0.48486451 0.87455033 6.00000000
0.74226857 0.28118671 0.76396891 -0.00979183 0.38865012 0.92133338 6.00000000
0.00266793 0.27305503 0.65127653 -0.97679412 0.21367331 -0.01472982 6.00000000
0.87163683 0.63773279 0.72783061 -0.00343836 -0.01641346 0.99985938 6.00000000
0.26923875 0.74267963 0.72784499 0.00738949 0.00138868 0.99997173 6.00000000
0.14825372 0.82448692 0.50793094 0.00000036 0.99961652 -0.02769134 6.00000000
0.47907564 0.42820921 1.06441243 0.01024729 0.75626933 0.65418017 2.00000000
0.68251168 0.43231436 0.77267718 -0.99999089 -0.00416668 0.00092411 2.00000000
0.66436776 0.31997191 0.76937789 -0.08637511 0.99488248 0.05242311 2.00000000
0.96242492 0.82525060 0.42982740 0.05455721 0.99760033 0.04262734 6.00000000
0.42947507 0.81946762 0.67272070 -0.00392138 0.99998976 -0.00226028 6.00000000
0.98716915 0.35215475 0.50791565 0.99999897 -0.00125164 0.00069960 6.00000000
0.44116777 0.66996915 0.72669118 0.01159746 -0.01159665 0.99986550 6.00000000
0.37749337 0.54809059 0.72544653 -0.01846165 -0.01845481 0.99965924 6.00000000
0.03108038 0.61716112 0.37617777 -0.99999776 0.00208197 -0.00038967 6.00000000
0.72039232 0.82819965 0.57028638 -0.00240269 0.99999198 0.00320516 6.00000000
0.01682984 0.30146365 0.37992853 -0.93669385 0.35013486 0.00319466 6.00000000
0.52700353 0.82767213 0.55333656 0.00048163 0.99999695 0.00242392 6.00000000
0.87496563 0.56078209 0.72744150 -0.00338767 -0.00777345 0.99996405 6.00000000
0.90916725 0.81919199 0.59925365 -0.00470212 0.99998771 0.00156931 6.00000000
0.46209532 0.81804877 0.52650031 -0.00041465 0.99999573 0.00289194 6.00000000
0.17361074 0.62612063 0.72625491 0.00394615 -0.00259615 0.99998884 6.00000000
0.93826051 0.82376623 0.69095251 -0.00341778 0.99973947 -0.02256770 6.00000000
0.03051083 0.61590526 0.30920584 -0.99998007 0.00237685 0.00584822 6.00000000
0.07907570 0.71401109 0.72889219 -0.00410342 0.00413746 0.99998302 6.00000000
0.90982017 0.81763523 0.28892964 -0.00226655 0.99999693 0.00100566 6.00000000
0.97735451 0.58655142 0.33069434 0.99999737 -0.00170838 0.00153275 6.00000000
0.44445359 0.81760433 0.59871306 -0.00098949 0.99999896 0.00104771 6.00000000
1.00817556 0.21291881 0.75469586 0.89348632 -0.07769535 0.44231846 6.00000000
0.97726781 0.60641935 0.35827387 0.99999701 -0.00162932 -0.00182535 6.00000000
0.76330969 0.56103308 0.72587139 0.00977910 0.00976972 0.99990446 6.00000000
0.85043434 0.34610409 0.74876997 -0.00004245 -0.01097089 0.99993982 1.00000000
0.98737914 0.40779963 0.43852913 0.99876183 0.04760936 0.01442734 6.00000000
0.00856475 0.81129429 0.51135174 -0.99008176 0.14011524 0.01028719 6.00000000
0.18511681 0.44576396 0.74220628 0.02032313 0.39396386 0.91890122 6.00000000
0.63678713 0.32449298 0.67916010 -0.06548983 0.99763271 0.02097780 2.00000000
0.72840310 0.40862445 0.74701662 -0.08507963 0.11500994 0.98971419 1.00000000
0.32548743 0.40176846 0.84258473 0.99996971 -0.00718050 -0.00300415 2.00000000
0.97759688 0.55775050 0.60958835 0.99997879 0.00485314 0.00434343 6.00000000
0.20623107 0.44255794 0.74622909 0.01108273 0.38113918 0.92445124 6.00000000
0.85555672 0.82495759 0.41354760 -0.00335765 0.99995298 0.00909784 6.00000000
0.31305573 0.43151929 1.03323795 -0.86085359 0.47939669 0.17061624 2.00000000
0.48958523 0.82455891 0.70673269 -0.00000168 0.99967426 -0.02552188 6.00000000
0.54440174 0.32183578 0.65150434 -0.00091234 0.99970340 0.02433694 2.00000000
0.74492106 0.57942169 0.72587140 0.00977823 0.00977055 0.99990446 6.00000000
0.51168861 0.54921337 0.72544502 0.02281597 0.02281759 0.99947926 6.00000000
0.55430024 0.81806084 0.35985930 -0.00718056 0.99995236 0.00661131 6.00000000
0.33204169 0.72283416 0.72707986 -0.00595486 0.00595714 0.99996453 6.00000000
0.99884451 0.28839256 0.54647086 0.93060360 0.36569384 -0.01565105 6.00000000
0.33530865 0.49711674 0.72602630 0.00766605 0.01386184 0.99987453 6.00000000
0.87607065 0.82811360 0.27274057 0.00287975 0.99998716 0.00416948 6.00000000
0.51045480 0.82300251 0.67514346 0.00000247 0.99995222 0.00977528 6.00000000
0.11798841 0.82693053 0.36156949 0.00533702 0.99996420 0.00656585 6.00000000
0.57407914 0.72149373 0.72757792 0.01081670 0.01082290 0.99988293 6.00000000
0.18779523 0.32810380 0.74752588 0.00421602 -0.00220124 0.99998869 4.00000000
0.79845073 0.82448682 0.50793098 -0.00000006 0.99961652 -0.02769134 6.00000000
0.62554303 0.42081146 1.07181016 -0.01801868 0.59589555 0.80285978 2.00000000
0.74607514 0.74401715 0.72751247 -0.00030735 -0.00015363 0.99999994 6.00000000
0.87934642 0.52698821 0.72598989 -0.01168609 0.01169417 0.99986333 6.00000000
0.11427443 0.81846826 0.66416110 0.00238382 0.99999511 -0.00202243 6.00000000
0.54347781 0.31926097 0.84190437 0.00000958 0.99996378 -0.00851086 2.00000000
0.54366654 0.61814149 0.72602631 -0.00857127 -0.00857134 0.99992653 6.00000000
0.19108650 0.26465240 0.76393045 -0.00078067 0.10205096 0.99477887 6.00000000
0.52740274 0.49149319 0.72753502 0.02279781 0.03952317 0.99895855 6.00000000
0.30696525 0.41850060 0.99957123 -0.99873000 0.05010650 0.00526539 2.00000000
0.77607297 0.63773280 0.72783060 -0.00345402 -0.01637339 0.99985998 6.00000000
0.85555417 0.81867917 0.34215168 -0.00365740 0.99999298 -0.00080877 6.00000000
0.19207166 0.82543805 0.54012544 -0.00006292 0.99968096 0.02525810 6.00000000
0.91656510 0.82820093 0.28608438 -0.00249463 0.99999632 0.00106459 6.00000000
0.86593033 0.77125203 0.72689389 0.00003180 0.03440474 0.99940798 6.00000000
0.14919137 0.81767440 0.58267727 -0.00042091 0.99999976 -0.00054780 6.00000000
0.87602752 0.73361958 0.72578011 -0.00636011 0.00641980 0.99995917 6.00000000
0.81774304 0.81774135 0.46885632 -0.00768637 0.99996142 0.00425207 6.00000000
0.91199010 0.68246977 0.72728779 -0.00342404 -0.02190973 0.99975409 6.00000000
0.26600037 0.82743017 0.27904379 -0.00292709 0.99999084 -0.00312426 6.00000000
1.00703796 0.26226827 0.61852829 0.97025309 0.24107642 0.02216100 6.00000000
0.19364032 0.59573811 0.72633554 0.00975269 0.00975347 0.99990487 6.00000000
0.27819308 0.44294946 0.74337551 -0.00298522 0.41947169 0.90776351 6.00000000
0.44857824 0.32406965 0.78230500 -0.00574238 0.99995379 -0.00770945 2.00000000
0.93968712 0.75835405 0.72874333 -0.00145152 -0.00010294 0.99999894 6.00000000
0.83860841 0.82819333 0.59378723 0.00108405 0.99999868 -0.00121025 6.00000000
0.74609340 0.82365099 0.47562120 -0.00000007 0.99971113 -0.02403446 6.00000000
0.30775872 0.32081619 0.90860608 -0.99995583 -0.00927054 0.00154618 2.00000000
0.88154603 0.63673439 0.72669647 -0.00618882 0.00619690 0.99996165 6.00000000
0.04834653 0.82676482 0.65744779 -0.11985050 0.99273664 0.01047987 6.00000000
0.97730917 0.76275437 0.66873926 0.97985026 -0.19970682 0.00326306 6.00000000
0.93718520 0.41490585 0.74706293 0.01927406 0.06947317 0.99739761 1.00000000
0.68774306 0.82872168 0.38826700 0.00325180 0.99999050 0.00290312 6.00000000
0.30889084 0.36063093 1.01877155 -0.99636815 0.01685217 -0.08346561 2.00000000
0.13609804 0.81953022 0.67510466 0.00299810 0.99999460 -0.00134853 6.00000000
0.93831488 0.82361735 0.26573251 0.00000015 0.99999589 -0.00286685 6.00000000
0.30460287 0.69539535 0.72707986 -0.00595603 0.00595596 0.99996453 6.00000000
0.38697110 0.53861287 0.72544653 -0.01846127 -0.01845521 0.99965924 6.00000000
0.29239094 0.82349732 0.73541565 -0.00093192 0.95878916 0.28411703 6.00000000
0.80345523 0.82746277 0.51200387 -0.00068309 0.99999334 -0.00358482 6.00000000
0.48904167 0.31997193 0.76937788 -0.00000264 0.99996764 0.00804499 2.00000000
0.45782570 0.69825485 0.72807558 0.00351501 -0.02340084 0.99971998 6.00000000
0.77088960 0.82425146 0.36453530 -0.00000006 0.99993122 -0.01172809 6.00000000
0.06211358 0.48153177 0.72551755 -0.20079215 0.15928730 0.96659716 6.00000000
0.02099896 0.31112921 0.64506502 -0.95808339 0.28601907 -0.01641033 6.00000000
0.67646702 0.82349726 0.73541568 0.00079237 0.95879053 0.28411281 6.00000000
0.26998605 0.82300254 0.67514345 -0.00005082 0.99995221 0.00977664 6.00000000
0.83349951 0.82764348 0.31182944 -0.00586428 0.99998029 -0.00224469 6.00000000
0.39173796 0.31445385 0.68773745 0.00404772 0.99999181 0.00005064 2.00000000
0.52127678 0.62183735 0.72715326 0.00000355 -0.01365590 0.99990675 6.00000000
0.68843714 0.82497681 0.66212060 0.00003988 0.99993232 0.01163431 6.00000000
0.88714639 0.82525061 0.42982739 0.00007737 0.99931193 0.03708994 6.00000000
0.02245180 0.44789848 0.71272325 -0.87492510 0.39510807 0.27999228 6.00000000
0.49353076 0.52526911 0.72754536 -0.02383247 0.02383319 0.99943183 6.00000000
0.68843705 0.41043543 1.07666191 0.16128308 0.30563931 0.93838818 2.00000000
0.98982629 0.81237540 0.70132263 0.27627466 0.96107869 -0.00024287 6.00000000
0.89643977 0.29676033 0.74839528 -0.00383950 0.77978199 0.62603938 6.00000000
0.78724145 0.62183731 0.72715328 -0.00342481 -0.01474924 0.99988536 6.00000000
1.00785244 0.26423564 0.63604391 0.97023653 0.24211479 0.00463659 6.00000000
0.03184776 0.46828556 0.52582072 -0.98854985 0.15031553 0.01320722 6.00000000
0.97445616 0.82499598 0.60133442 0.14829870 0.98892327 0.00618627 6.00000000
0.95512193 0.82382388 0.56936089 0.04019257 0.99916929 -0.00673000 6.00000000
0.16788682 0.56078219 0.72744146 0.00339509 -0.00775603 0.99996416 6.00000000
0.99249862 0.43363273 0.45493730 0.98757064 0.15657790 0.01369621 6.00000000
0.98712947 0.39930676 0.67730965 0.99876897 -0.04874304 -0.00920076 6.00000000
0.00276030 0.24862704 0.57430955 -0.99220974 0.12403745 0.01159929 6.00000000
0.32640842 0.38338812 0.91417069 0.99988775 -0.01171128 0.00934486 2.00000000
0.00171237 0.21559742 0.34242414 -0.99999902 0.00002028 0.00139639 6.00000000
0.74618770 0.81912557 0.59315401 -0.00516990 0.99997600 -0.00461183 6.00000000
0.62937455 0.31917448 0.91380637 0.00002868 0.99984978 -0.01733243 2.00000000
0.20800598 0.82800094 0.70085209 0.00879678 0.99978841 0.01859465 6.00000000
0.04812530 0.28746152 0.76351728 -0.01182947 0.48730354 0.87315252 6.00000000
0.02108582 0.34683965 0.58237813 -0.99999717 -0.00231501 0.00055025 6.00000000
0.63718760 0.43121207 0.74501067 0.00742080 0.43067550 0.90247634 6.00000000
0.14760825 0.28897362 0.75618206 -0.00257960 0.63549988 0.77209666 6.00000000
0.58742561 0.34762226 1.07457134 -0.00922229 -0.01047222 0.99990264 2.00000000
0.07445612 0.62183742 0.72715323 0.00340001 -0.01480657 0.99988460 6.00000000
0.60923868 0.31903039 0.79794078 0.00002361 0.99999480 -0.00322378 2.00000000
0.64033253 0.82469342 0.39723898 -0.00000008 0.99988295 -0.01530001 6.00000000
0.02155928 0.41986304 0.48953072 -0.99834345 0.05740799 0.00383125 6.00000000
0.86407563 0.26465230 0.76393049 0.00091997 0.10206039 0.99477778 6.00000000
0.47870061 0.42911419 1.06597143 0.00976321 0.51474905 0.85728530 2.00000000
0.02734068 0.82739334 0.41254125 -0.27990620 0.96002693 -0.00089796 6.00000000
0.70355258 0.56078211 0.72744149 -0.00341783 -0.00770332 0.99996449 6.00000000
0.00224897 0.23376650 0.31802583 -0.99993191 0.01149195 -0.00202674 6.00000000
0.13898062 0.82543806 0.54012544 -0.00007379 0.99968094 0.02525892 6.00000000
0.61460651 0.74298879 0.72644790 0.00429174 0.00678139 0.99996780 6.00000000
0.30290045 0.81889536 0.74554188 -0.00617590 0.90793761 0.41905985 6.00000000
0.20845814 0.82860562 0.32857929 -0.00439085 0.99998919 0.00152691 6.00000000
0.37388541 0.37770297 1.07624877 0.00000018 -0.01083912 0.99994125 2.00000000
0.00736172 0.29199554 0.37992853 -0.93499745 0.35463015 0.00415134 6.00000000
0.39456486 0.82499607 0.60133438 -0.00002176 0.99982898 0.01849359 6.00000000
0.97798165 0.52950515 0.33298690 0.99999415 0.00318677 -0.00124440 6.00000000
0.03056352 0.82371356 0.29878201 -0.11453791 0.99336607 -0.01024289 6.00000000
0.04592614 0.82878170 0.61241558 -0.12024156 0.99269563 0.00986658 6.00000000
0.89154848 0.40862443 0.74701663 -0.00393735 0.18767627 0.98222305 1.00000000
0.35696424 0.82720842 0.55967243 -0.00442703 0.99998898 0.00156208 6.00000000
0.28928041 0.40479818 0.74721138 0.01988259 0.05467498 0.99830623 4.00000000
0.83741379 0.81921562 0.52890119 -0.00654278 0.99996065 -0.00599089 6.00000000
0.75353225 0.82439555 0.58536205 -0.00343496 0.99994449 -0.00996100 6.00000000
0.13637729 0.82791980 0.73755772 0.01801342 0.97041969 0.24075122 6.00000000
0.20523743 0.82371353 0.29878202 0.00000036 0.99998915 -0.00465795 6.00000000
0.77413008 0.82499601 0.60133440 0.00005712 0.99982895 0.01849511 6.00000000
0.84652132 0.46698476 0.72732620 -0.00561552 0.20345716 0.97906775 6.00000000
0.71915727 0.82361739 0.26573250 0.00000015 0.99999589 -0.00286685 6.00000000
0.98656214 0.81902497 0.57968408 0.17454715 0.98447313 0.01859982 6.00000000
0.02132725 0.35409204 0.33856336 -0.99998289 -0.00581060 -0.00068178 6.00000000
0.55053307 0.38451478 1.07457134 -0.01291980 0.14235532 0.98973130 2.00000000
0.40218793 0.72653061 0.72587141 -0.00977144 0.00977730 0.99990446 6.00000000
0.05951042 0.29676045 0.74839523 0.00382004 0.77978571 0.62603487 6.00000000
0.77130398 0.82376626 0.69095250 -0.00344838 0.99974098 -0.02249627 6.00000000
0.81088280 0.82327629 0.45942307 -0.00335954 0.99998672 0.00390837 6.00000000
0.03603202 0.67697314 0.72726676 -0.62734681 -0.03616014 0.77790001 6.00000000
0.63823518 0.32344843 0.82373499 -0.04490732 0.99895241 0.00879907 2.00000000
0.59758110 0.44596374 0.73729870 0.00977581 0.55095667 0.83447659 6.00000000
0.66041303 0.45441303 0.72847987 0.01515987 0.32597009 0.94525852 6.00000000
0.44765589 0.82497684 0.66212059 -0.00001089 0.99993233 0.01163350 6.00000000
0.93188900 0.82723051 0.39710023 0.00141041 0.99999852 0.00098761 6.00000000
0.09995751 0.82760080 0.51877973 -0.00241592 0.99999539 -0.00184017 6.00000000
0.85478224 0.82376624 0.69095251 -0.00343308 0.99974022 -0.02253214 6.00000000
0.01366802 0.24808922 0.76392083 -0.01917627 0.05714394 0.99818177 6.00000000
0.77221882 0.28537010 0.75582147 0.00847164 0.46994248 0.88265638 6.00000000
0.42329450 0.82361743 0.26573248 0.00000015 0.99999589 -0.00286685 6.00000000
0.64607215 0.51573593 0.72602630 -0.00825282 -0.00825377 0.99993188 6.00000000
0.88029853 0.68246978 0.72728779 -0.00342978 -0.02189639 0.99975436 6.00000000
0.21545591 0.37070998 0.74687090 -0.00006937 0.02081014 0.99978344 4.00000000
0.34820610 0.44596378 0.73729868 -0.00986145 0.55096696 0.83446879 6.00000000
0.64343252 0.82829043 0.52706493 -0.00227441 0.99997266 0.00703622 6.00000000
0.28220065 0.39518853 0.74940403 0.12252286 0.07190289 0.98985763 4.00000000
0.55421153 0.43829702 0.74496542 -0.00649121 0.56965255 0.82185998 6.00000000
0.80301128 0.43331559 0.74622909 -0.01134654 0.38092243 0.92453738 6.00000000
0.66608659 0.82349726 0.73541568 0.00074577 0.95879094 0.28411155 6.00000000
0.40834311 0.81796363 0.66152753 0.00119278 0.99999760 0.00183680 6.00000000
0.28205891 0.82855931 0.46988458 -0.00103194 0.99999779 -0.00183380 6.00000000
0.52201204 0.81822651 0.62201980 0.00154776 0.99999826 0.00103914 6.00000000
0.97886397 0.57029673 0.37250287 0.99999551 -0.00299423 -0.00014632 6.00000000
0.58175913 0.32302930 0.84886797 0.01029252 0.99993963 0.00384818 2.00000000
0.03676835 0.58372686 0.72652786 -0.56645806 -0.05418503 0.82230727 6.00000000
0.65585042 0.32486551 0.75197746 -0.28907103 0.95688712 0.02837206 2.00000000
0.94667310 0.81936339 0.42625995 -0.00396913 0.99998940 -0.00233352 6.00000000
0.66847780 0.36129343 1.07608546 0.04099363 -0.00826154 0.99912525 2.00000000
0.57413683 0.81818298 0.38726133 -0.00399305 0.99997420 0.00597097 6.00000000
0.59482441 0.81952121 0.39906465 0.00132258 0.99999475 0.00295861 6.00000000
0.09790227 0.69147612 0.72633555 0.00975268 0.00975349 0.99990487 6.00000000
0.44809746 0.82349729 0.73541566 -0.00023289 0.95879381 0.28410277 6.00000000
0.08350508 0.82405460 0.49179046 0.00000034 0.99966558 -0.02585977 6.00000000
0.54358662 0.82380475 0.31526359 -0.00000009 0.99997942 -0.00641630 6.00000000
0.30508110 0.46698484 0.72732617 0.00642657 0.20355876 0.97904164 6.00000000
0.39613470 0.82810095 0.40850731 0.00093870 0.99999487 0.00306263 6.00000000
0.83671749 0.30040733 0.74079631 0.01264534 0.37268387 0.92787221 6.00000000
0.03126525 0.71546201 0.57575794 -0.99998625 0.00098527 -0.00515078 6.00000000
0.04341672 0.63773291 0.72783056 0.00093228 -0.00257950 0.99999624 6.00000000
0.48412989 0.51586824 0.72754535 -0.02383286 0.02383280 0.99943183 6.00000000
0.29955397 0.82707981 0.73242878 0.00059986 0.96888527 0.24750956 6.00000000
0.76554704 0.82892039 0.43204313 0.00280556 0.99999583 0.00068490 6.00000000
0.00572699 0.28966237 0.65802571 -0.93584399 0.35236612 -0.00584399 6.00000000
0.03144418 0.50787786 0.54671726 -0.99999263 -0.00173491 0.00342464 6.00000000
0.00927765 0.80865992 0.37938255 -0.99604422 0.08863751 0.00626851 6.00000000
0.97871863 0.48937212 0.27766144 0.99588642 0.05943798 0.06839126 6.00000000
0.61883178 0.47642397 0.72578009 -0.00306414 0.15566180 0.98780566 6.00000000
0.67937301 0.60495695 0.72544653 0.01846387 -0.01845243 0.99965924 6.00000000
0.56628590 0.35912006 1.07470273 0.00267215 -0.00390674 0.99998880 2.00000000
0.80021539 0.81826603 0.66853650 -0.00594188 0.99997736 -0.00315832 6.00000000
0.46705938 0.31410718 0.75484500 -0.00440379 0.99998894 -0.00165005 2.00000000
0.69884746 0.34946181 1.00190491 0.99994290 0.01031668 0.00278560 2.00000000
0.36103490 0.82698076 0.29333782 0.00098066 0.99999144 -0.00401961 6.00000000
0.74968716 0.82407373 0.34814022 -0.00000006 0.99995048 -0.00995136 6.00000000
0.13644374 0.82771884 0.69046437 -0.00095406 0.99994501 -0.01044346 6.00000000
0.96268377 0.81818637 0.49938201 0.14166785 0.98991383 -0.00091365 6.00000000
0.54412999 0.31926098 0.70932185 0.00000943 0.99997419 0.00718508 2.00000000
0.89485713 0.24385590 0.76265310 0.00217756 0.05203902 0.99864268 6.00000000
0.19581484 0.74267964 0.72784499 0.00737290 0.00132350 0.99997194 6.00000000
0.72711922 0.82445802 0.38090155 -0.00000007 0.99990872 -0.01351097 6.00000000
0.99428329 0.29008579 0.31253503 0.94250313 0.33410421 -0.00788876 6.00000000
0.24288003 0.56078218 0.72744146 0.00340828 -0.00772536 0.99996435 6.00000000
0.97863207 0.55105172 0.37844814 0.99998978 -0.00169811 0.00418991 6.00000000
0.36910741 0.41138016 1.07559963 0.00053381 0.34537124 0.93846599 2.00000000
0.03076687 0.49037791 0.57030572 -0.99889171 0.04687408 0.00426292 6.00000000
0.98756431 0.36266656 0.31433146 0.99998762 -0.00012055 0.00497453 6.00000000
0.92848785 0.82838353 0.43314100 0.00236724 0.99997079 -0.00726708 6.00000000
0.97841261 0.45599731 0.42636126 0.98305233 0.18153444 0.02556102 6.00000000
0.03081410 0.71295409 0.42896661 -0.99999748 -0.00210018 0.00079365 6.00000000
0.66749962 0.75835409 0.72874331 -0.00149845 -0.00005311 0.99999888 6.00000000
0.48902129 0.31903041 0.75374660 -0.00000218 0.99999798 0.00200777 2.00000000
0.49821728 0.76043211 0.72710682 0.00542807 -0.07793925 0.99694333 6.00000000
0.92899557 0.81964215 0.41659542 -0.00193372 0.99995816 0.00894108 6.00000000
0.30109337 0.75835414 0.72874329 0.00149291 -0.00005902 0.99999888 6.00000000
0.32194719 0.82738897 0.34856344 -0.00354468 0.99998505 0.00416287 6.00000000
0.06168444 0.82361748 0.26573246 -0.03664255 0.99831415 -0.04501306 6.00000000
0.87760832 0.74267954 0.72784503 -0.00735642 0.00125860 0.99997215 6.00000000
0.74180164 0.81936643 0.74937703 0.02368561 0.77838352 0.62734208 6.00000000
0.37551594 0.81889535 0.74554189 -0.00607229 0.90794720 0.41904058 6.00000000
0.03113042 0.52707983 0.54073316 -0.99999695 0.00135203 0.00206919 6.00000000
0.35887194 0.82407379 0.34814020 0.00000038 0.99995048 -0.00995136 6.00000000
0.40421596 0.41237632 1.07588290 -0.00339972 0.36874140 0.92952581 2.00000000
0.98734899 0.32861385 0.42978938 0.99673671 0.08049693 0.00601499 6.00000000
0.69425232 0.82869741 0.71279421 -0.00394922 0.99380687 0.11105091 6.00000000
1.00076027 0.20509039 0.76317374 0.48860881 -0.09664250 0.86713416 6.00000000
0.05105393 0.81804193 0.28126359 -0.00093746 0.99999864 -0.00135865 6.00000000
0.86610013 0.51542061 0.72860880 -0.00339538 -0.00243980 0.99999126 6.00000000
0.73067625 0.37599694 0.74733212 -0.00977659 0.02743353 0.99957582 1.00000000
0.78260827 0.41917820 0.74198713 0.00494330 0.20313440 0.97913839 1.00000000
0.62552389 0.56980859 0.72633100 -0.01024148 -0.01024157 0.99989511 6.00000000
0.97870179 0.50534202 0.69472105 0.98570394 -0.00334563 0.16845338 6.00000000
0.70878520 0.46397365 0.72669646 -0.00172515 0.24666118 0.96910024 6.00000000
0.04490455 0.82425157 0.36453526 -0.03570918 0.99903259 -0.02566606 6.00000000
0.65391392 0.81819920 0.67282248 0.00102087 0.99999917 -0.00078390 6.00000000
0.73110211 0.43365427 0.74337551 0.00270258 0.41928483 0.90785072 6.00000000
0.19604890 0.39011698 0.74687091 0.00552397 0.03783106 0.99926888 4.00000000
0.64040085 0.82771930 0.62609174 -0.00149558 0.99998919 0.00440272 6.00000000
0.55981959 0.32442818 0.64961815 0.00166741 0.99999191 0.00365990 2.00000000
0.30877096 0.31692173 0.81202543 -0.99999615 0.00256087 -0.00106891 2.00000000
0.78173877 0.82376625 0.69095250 -0.00344647 0.99974089 -0.02250077 6.00000000
0.51088270 0.32110560 0.82901120 0.00000240 0.99997831 -0.00658641 2.00000000
0.96057397 0.81784432 0.65744779 0.12636651 0.99182573 0.01769807 6.00000000
0.92160371 0.82739917 0.56932350 0.00355733 0.99999355 -0.00048577 6.00000000
0.03311829 0.82015699 0.29031834 -0.00245998 0.99999695 0.00022948 6.00000000
0.38315324 0.42044733 1.06393629 -0.00864647 0.38996396 0.92078953 2.00000000
0.41042948 0.31516987 0.85777296 -0.00693469 0.99997238 0.00267460 2.00000000
0.45201683 0.82698114 0.52640163 0.00225779 0.99999743 -0.00022466 6.00000000
0.39171154 0.46698483 0.72732617 0.00688983 0.20362662 0.97902438 6.00000000
0.29928633 0.82439562 0.58536202 0.00344391 0.99994468 -0.00993883 6.00000000
0.72954440 0.36249438 0.74895251 -0.14863487 -0.01659852 0.98875283 1.00000000
0.47676876 0.82697796 0.28052381 -0.00072489 0.99999834 -0.00167413 6.00000000
0.30801697 0.35787320 0.87857313 -0.99999921 0.00113183 -0.00055206 2.00000000
0.69762210 0.42236740 0.95728796 0.99982510 0.01778978 0.00577066 2.00000000
0.21474141 0.32968509 0.74861621 -0.00000007 -0.01020784 0.99994790 4.00000000
0.87948327 0.45363043 0.72963199 0.00250774 0.38953381 0.92100875 6.00000000
0.08633190 0.41821120 0.74539822 0.00411069 0.07209105 0.99738958 4.00000000
0.26968714 0.82497687 0.66212058 -0.00004841 0.99993231 0.01163474 6.00000000
0.53169122 0.82439559 0.58536204 0.00000557 0.99993583 -0.01132830 6.00000000
0.08896864 0.60299622 0.72562965 0.00001637 -0.00003085 1.00000000 6.00000000
0.75015582 0.40862445 0.74701662 -0.02589696 0.17894506 0.98351818 1.00000000
0.61120162 0.50281744 0.72558558 -0.00027323 0.00027549 0.99999992 6.00000000
0.78790715 0.23149708 0.76394009 -0.00007168 0.00057764 0.99999983 6.00000000
0.58684748 0.82407375 0.34814021 -0.00000009 0.99995048 -0.00995136 6.00000000
0.54331477 0.32149950 0.87281147 0.00000920 0.99992910 -0.01190798 2.00000000
0.66125112 0.65919318 0.72751246 -0.00618882 0.00621015 0.99996157 6.00000000
0.28271606 0.64286786 0.72544654 -0.01846533 -0.01845082 0.99965924 6.00000000
